# .PCD v0.7 - Point Cloud Data file format
VERSION 0.7
FIELDS x y z intensity
SIZE 4 4 4 4
TYPE F F F F
COUNT 1 1 1 1
WIDTH 1316
HEIGHT 1
VIEWPOINT 0 0 0 1 0 0 0
POINTS 1316
DATA ascii
2.5500894 0.029376436 -0.22311871 65
2.5226147 0.029059933 0.49037915 75
2.5802927 0.029273994 -0.13523613 64
2.5254097 0.028210538 0.58307308 47
2.557456 0.028122125 -0.044643257 20
6.2800822 0.067960471 1.6828415 130
2.8725312 0.027575741 -0.76972789 3
2.5415001 0.023954317 0.044364017 20
3.3244085 0.030751621 -0.767533 2
2.5583835 0.023220381 0.13408473 73
5.1886678 0.047093347 -1.0086164 10
2.5322266 0.022541011 0.22154988 63
2.554065 0.022288414 -0.40453959 47
2.524945 0.021594808 0.31003565 17
2.5547242 0.021403607 -0.31369171 19
2.526422 0.020724336 0.40015942 69
2.5481839 0.020459324 -0.22294438 63
2.5187743 0.020223195 0.48961592 75
2.5683961 0.020173335 -0.13460809 69
2.5254927 0.019394366 0.58307308 50
2.5455406 0.019105257 -0.044433825 20
6.2880087 0.046096455 1.6849121 130
2.8648858 0.017000614 -0.76765728 2
2.537569 0.015058273 0.044294208 19
3.3089061 0.019059569 -0.76393378 2
2.5444682 0.014211051 0.13335203 70
5.1750631 0.027999934 -1.0059451 14
2.5263152 0.013229046 0.22102696 61
2.5501788 0.012907716 -0.40391383 47
2.5170648 0.01274011 0.30906066 16
2.5468433 0.012446341 -0.31271678 19
2.5146267 0.011851231 0.39828217 68
2.5502324 0.011572739 -0.22311871 65
2.5188315 0.010990644 0.48961592 75
2.5564692 0.010709921 -0.13398007 69
2.5099573 0.010075819 0.57947391 48
2.5535908 0.010250977 -0.044573449 20
6.2842674 0.024130417 1.6838769 130
2.8649275 0.007000796 -0.76765728 2
2.5356073 0.005753539 0.044259302 19
3.2894664 0.0068884613 -0.75943476 2
2.542506 0.0048817405 0.13324735 73
5.1692395 0.0099252025 -1.0048002 12
2.526346 0.0044098068 0.22102696 61
2.5541592 0.0040113786 -0.40453959 49
2.5151098 0.0035123057 0.30881694 17
2.5309908 0.0030927679 -0.31076685 19
2.5067518 0.0026244686 0.39703071 67
2.5422881 0.0022191994 -0.22242144 65
2.5188546 0.0021987439 0.48961592 72
2.5624828 0.0017896168 -0.13429408 73
2.5021822 0.0013096231 0.57767427 47
2.5296147 0.00088371284 -0.044154592 19
6.2881775 0.0010993269 1.6849121 130
2.8572066 -0.0034907381 -0.76558679 3
2.5376117 -0.003100279 0.044294208 19
3.3050604 -0.0046147374 -0.76303399 2
2.536516 -0.003984353 0.13293335 70
5.1810203 -0.0090425946 -1.00709 6
2.5084138 -0.0048158146 0.21945816 63
2.552181 -0.0053452831 -0.40422669 44
2.5170915 -0.005271791 0.30906066 18
2.5309863 -0.0057426351 -0.31076685 19
2.502795 -0.0061154943 0.39640498 67
2.5283337 -0.0066191764 -0.22120127 69
2.5109925 -0.0070120315 0.48808944 75
2.5604749 -0.0075971042 -0.13418941 69
2.5021701 -0.0078608245 0.57767427 48
2.5396008 -0.0079784179 -0.044329114 20
6.2842793 -0.020839535 1.6838769 130
2.8571815 -0.012466885 -0.76558679 2
2.5115914 -0.011397319 0.043840446 20
3.3245139 -0.015666518 -0.767533 2
2.5324941 -0.012376199 0.13272399 79
6.3451624 -0.03100856 -1.2333894 100
2.502409 -0.012665939 0.21893522 57
2.5363491 -0.013280413 -0.40172374 44
2.5051498 -0.013554297 0.30759826 17
2.5249982 -0.014102397 -0.31003565 18
2.4988103 -0.014392273 0.39577925 67
2.5223207 -0.014967929 -0.22067833 77
2.4972157 -0.014818951 0.48541811 78
2.5624356 -0.015653223 -0.13429408 73
2.5021331 -0.015721573 0.57767427 47
2.5375607 -0.016387081 -0.044294208 21
6.2841754 -0.041678842 1.6838769 130
2.8764346 -0.023093989 -0.77076316 2
2.5195351 -0.020228557 0.043980066 21
3.3166442 -0.027207199 -0.76573336 2
2.5184553 -0.021099055 0.1319913 63
6.3646374 -0.054432426 -1.2372056 100
2.5063305 -0.021872414 0.21928383 59
2.5283823 -0.022506177 -0.40047228 42
2.4951622 -0.022210473 0.30637956 16
2.5328734 -0.02298826 -0.31101057 20
2.5026953 -0.023151202 0.39640498 67
2.522253 -0.023772378 -0.22067833 72
2.4932182 -0.023933914 0.4846549 78
2.5463839 -0.02488875 -0.13345671 73
2.4981616 -0.024853472 0.57677448 50
2.5314894 -0.025185039 -0.044189494 20
6.2878551 -0.063653558 1.6849121 130
2.849292 -0.032822937 -0.76351619 2
2.5114458 -0.029369444 0.043840446 19
3.3087277 -0.039270617 -0.76393378 2
2.5023892 -0.029700352 0.13115391 64
6.3408518 -0.076365128 -1.2326262 100
2.49827 -0.030523645 0.21858659 61
2.5322387 -0.031380694 -0.40109801 42
2.4851396 -0.031230828 0.30516088 17
2.506968 -0.031942766 -0.30784199 19
2.5025992 -0.031887099 0.39640498 67
2.5221548 -0.032576539 -0.22067833 77
2.4970458 -0.032688119 0.48541811 78
2.5382929 -0.033671167 -0.13303801 77
2.482471 -0.033364024 0.57317531 50
2.5333853 -0.034048304 -0.0442244 21
6.295321 -0.085707076 1.6869825 130
2.8684764 -0.043058582 -0.76869255 3
2.5093353 -0.037667528 0.043805543 19
3.3241677 -0.050479252 -0.767533 2
2.5022705 -0.038435139 0.13115391 64
6.3209171 -0.098193422 -1.2288101 76
2.5021324 -0.039306633 0.21893522 59
2.5242202 -0.039653614 -0.39984655 44
2.4850223 -0.039471678 0.30516088 18
2.5028787 -0.04019225 -0.30735451 19
2.4827216 -0.04030199 0.3932763 67
2.5220256 -0.041380305 -0.22067833 79
2.4969234 -0.04096844 0.48541811 78
2.5381675 -0.042088266 -0.13303801 73
2.4784498 -0.041530706 0.57227546 50
2.5192554 -0.042654295 -0.043980066 21
6.2988472 -0.1077474 1.6880178 130
2.8528662 -0.052287351 -0.76455152 2
2.5111876 -0.046463497 0.043840446 21
3.3161776 -0.061936885 -0.76573336 2
2.5041263 -0.046770047 0.13125859 66
5.0328903 -0.094878979 -0.9784686 7
2.4820681 -0.047224779 0.2171921 59
2.5240664 -0.048464552 -0.39984655 44
2.4808998 -0.048068866 0.30467337 18
2.5106623 -0.049083896 -0.30832946 21
2.4786246 -0.048457552 0.39265057 65
2.5059383 -0.049429078 -0.21928383 77
2.4810624 -0.0493716 0.48236516 61
2.5380051 -0.050947871 -0.13303801 73
2.4763412 -0.050142404 0.57182556 51
2.5131023 -0.050886761 -0.043875352 23
6.2868662 -0.12839787 1.6849121 130
2.8526661 -0.062245395 -0.76455152 2
2.4890285 -0.054310795 0.043456491 21
3.3315399 -0.073276199 -0.76933259 2
2.4979575 -0.055377997 0.13094458 63
4.8499918 -0.10836788 -0.94297814 3
2.4739208 -0.055709112 0.21649487 57
2.5120425 -0.056567561 -0.39796934 44
2.4807267 -0.056295563 0.30467337 30
2.4985781 -0.057136983 -0.30686703 19
2.4843645 -0.057245776 0.39358914 30
2.5017669 -0.058083646 -0.21893522 77
2.4396677 -0.056641888 0.47435117 17
2.537822 -0.059363905 -0.13303801 77
2.4820061 -0.058491714 0.57317531 48
2.4969161 -0.059279125 -0.043596111 19
6.2863798 -0.15034236 1.6849121 130
2.8524442 -0.071704835 -0.76455152 3
2.4888237 -0.062998794 0.043456491 29
3.3156788 -0.084507778 -0.76573336 2
2.4897625 -0.063892208 0.13052589 56
4.4158683 -0.11331988 -0.85864049 9
2.4856727 -0.064221382 0.21754073 29
2.4999814 -0.065027691 -0.39609212 45
2.4646399 -0.064538874 0.3027235 62
2.4963789 -0.065805979 -0.30662328 20
2.4742761 -0.065655485 0.39202482 20
2.4975657 -0.066709697 -0.21858659 77
2.4688935 -0.06594386 0.48007545 20
2.5196304 -0.067739122 -0.13209596 81
2.4759426 -0.066997036 0.57182556 51
2.5106866 -0.068375699 -0.043840446 27
6.2935414 -0.17249671 1.6869825 130
2.856024 -0.082270332 -0.76558679 2
2.4865899 -0.071628444 0.043421589 70
3.3075721 -0.095855348 -0.76393378 2
2.4715564 -0.072058856 0.12958384 19
4.3585138 -0.12783493 -0.84757364 9
2.4854205 -0.073331393 0.21754073 18
2.5076246 -0.074424557 -0.39734361 45
2.4564626 -0.072906107 0.30174851 59
2.4802604 -0.07404568 -0.30467337 20
2.470083 -0.074173339 0.39139909 20
2.4933348 -0.075307131 -0.21823798 75
2.4725602 -0.075111598 0.48083872 20
2.4914167 -0.076119669 -0.13063055 51
2.4600978 -0.075592555 0.56822634 51
2.5044363 -0.076954968 -0.043735731 56
6.2929006 -0.19446421 1.6869825 130
2.859581 -0.092363939 -0.76662207 2
2.4823132 -0.080611967 0.043351781 72
3.3071988 -0.10797756 -0.76393378 2
2.4852633 -0.081141986 0.13031654 20
4.1677079 -0.13680072 -0.81055665 6
2.4771843 -0.081743836 0.21684349 18
2.4955034 -0.082784384 -0.39546639 46
2.4601469 -0.082041323 0.30223599 59
2.4918761 -0.083534837 -0.3061358 65
2.4540148 -0.082265623 0.38889611 18
2.4890742 -0.08387582 -0.21788934 21
2.4585478 -0.083276749 0.47816736 19
2.4831514 -0.084544018 -0.13021187 16
2.4500809 -0.083846182 0.56597686 55
2.4941599 -0.085354641 -0.043561205 62
6.3037677 -0.21682779 1.6900884 130
2.8631024 -0.10248339 -0.76765728 2
2.4740384 -0.088557027 0.043212157 71
3.3224022 -0.11950443 -0.767533 2
2.4769812 -0.089528114 0.12989786 19
3.7689271 -0.13688292 -0.7330882 11
2.4689195 -0.090099677 0.21614623 17
2.4991634 -0.091203392 -0.39609212 46
2.4598613 -0.090199016 0.30223599 59
2.4796832 -0.09135922 -0.30467337 78
2.4477906 -0.090612002 0.38795751 23
2.4788108 -0.092193536 -0.21701778 20
2.4661057 -0.091720998 0.47969386 21
2.4848533 -0.092852563 -0.13031654 16
2.4497893 -0.091970481 0.56597686 55
2.4838552 -0.093683526 -0.043386683 71
6.2913899 -0.23839183 1.6869825 130
2.8434432 -0.11122215 -0.76248091 2
2.4597273 -0.096642949 0.042967826 67
3.3297536 -0.13140844 -0.76933259 2
2.4786491 -0.098252952 0.13000253 19
3.7841461 -0.15000248 -0.73614115 12
2.4546714 -0.097731575 0.21492605 18
2.4830394 -0.099295095 -0.39358914 46
2.4555645 -0.09862566 0.30174851 60
2.4753821 -0.099854343 -0.3041859 55
2.4415383 -0.098915949 0.38701892 32
2.4744925 -0.10068364 -0.21666917 20
2.4540007 -0.099849857 0.47740412 21
2.4905007 -0.10177039 -0.13063055 16
2.4475064 -0.10044139 0.56552696 53
2.4835131 -0.10235322 -0.043386683 69
6.2866592 -0.26019168 1.6859473 130
2.8545969 -0.12213863 -0.76558679 2
2.4513838 -0.10488649 0.04282821 67
3.3136992 -0.14236149 -0.76573336 2
2.4802866 -0.10699053 0.13010719 20
3.7816093 -0.1637861 -0.7357595 11
2.4542966 -0.10672774 0.21492605 19
2.4747648 -0.10805057 -0.39233768 46
2.4393396 -0.10650387 0.29979861 60
2.4690688 -0.10823362 -0.30345467 60
2.4530187 -0.10795902 0.38889611 35
2.4781067 -0.10949652 -0.21701778 20
2.4281209 -0.10771248 0.4724431 16
2.4701583 -0.11000924 -0.12958384 15
2.4471219 -0.10941128 0.56552696 53
2.4911318 -0.11137896 -0.043526303 73
6.2972918 -0.28265437 1.6890532 130
2.8695915 -0.13281684 -0.76972789 2
2.4549778 -0.11405616 0.042898018 67
3.3209417 -0.15486896 -0.767533 2
2.4659324 -0.11499641 0.1293745 19
3.8574977 -0.18056546 -0.75064266 2
2.449929 -0.11510718 0.21457744 18
2.4743726 -0.11668845 -0.39233768 48
2.4329846 -0.11516223 0.29906741 62
2.4587412 -0.11681148 -0.30223599 55
2.4427612 -0.11605229 0.38733178 39
2.4697492 -0.11776648 -0.21632054 20
2.4238083 -0.11599986 0.47167987 17
2.4617794 -0.11824775 -0.12916516 16
2.4330995 -0.11729579 0.56237763 55
2.4627645 -0.1187259 -0.043037634 67
6.3001256 -0.30482101 1.6900884 130
2.880687 -0.14340909 -0.7728337 2
2.4505918 -0.12199768 0.04282821 64
3.3048394 -0.16510288 -0.76393378 2
2.4475634 -0.1227034 0.12843245 20
3.8960598 -0.19600241 -0.75827497 1
2.4515021 -0.12375877 0.21475175 18
2.4700265 -0.12469393 -0.39171195 49
2.4345715 -0.12333007 0.29931113 60
2.4523928 -0.12466197 -0.30150479 60
2.4344501 -0.1241759 0.38608032 44
2.4733026 -0.12659048 -0.21666917 20
2.4214497 -0.1239365 0.47129822 17
2.4773309 -0.12723017 -0.13000253 18
2.4249127 -0.12496244 0.56057805 55
2.4523497 -0.1268055 -0.042863112 62
6.3028822 -0.32701087 1.6911237 130
2.8570461 -0.15173158 -0.76662207 2
2.4541447 -0.13076389 0.042898018 67
3.2692156 -0.17476544 -0.75583553 2
2.4590862 -0.13188803 0.12906048 20
3.9071507 -0.209552 -0.76056474 1
2.4411306 -0.13135232 0.2138802 18
2.4656308 -0.13310219 -0.39108619 49
2.4361086 -0.13193493 0.29955488 62
2.4479785 -0.13300627 -0.30101728 60
2.4280844 -0.13235041 0.3851417 49
2.4529748 -0.13370714 -0.21492605 20
2.4229627 -0.13249537 0.47167987 16
2.456929 -0.13478288 -0.12895581 16
2.4205701 -0.13321203 0.55967826 55
2.4399123 -0.13470364 -0.04265368 62
6.2939868 -0.34858274 1.6890532 129
2.8603566 -0.16192198 -0.76765728 3
2.4337084 -0.13819598 0.042548969 64
2.4566169 -0.14035712 0.12895581 20
2.6911595 -0.15375754 -0.52396154 1
2.4307115 -0.13930267 0.21300863 18
2.44543 -0.14057438 -0.38795751 49
2.4395967 -0.14066626 0.30004236 62
2.449481 -0.14166513 -0.30126104 57
2.4335239 -0.14116842 0.38608032 51
2.4564714 -0.14249958 -0.21527468 20
2.4107254 -0.14026803 0.46939012 17
2.4644189 -0.14382377 -0.1293745 15
2.4220357 -0.14177446 0.56012809 53
2.4394271 -0.14321969 -0.04265368 62
6.2927318 -0.37055075 1.6890532 130
2.8404901 -0.17074633 -0.76248091 2
2.4352071 -0.14681068 0.042583872 71
2.6532366 -0.16041975 -0.61366647 2
2.4521246 -0.14868969 0.12874646 19
2.6612115 -0.1613681 -0.51823723 19
2.4282217 -0.14766563 0.21283433 19
2.4528115 -0.14959069 -0.389209 51
2.4153142 -0.14772695 0.2971175 62
2.4430275 -0.14984995 -0.30052981 60
2.4231582 -0.14905572 0.38451597 58
2.4519815 -0.15082873 -0.21492605 20
2.4023833 -0.14819868 0.46786368 17
2.4479544 -0.15143876 -0.12853712 16
2.4234712 -0.15034874 0.56057805 57
2.4389124 -0.15173401 -0.04265368 62
6.302968 -0.39323598 1.6921589 130
2.7704704 -0.17624511 -0.74384594 3
2.4286928 -0.15492833 0.042479157 64
2.6584947 -0.17005348 -0.61501622 29
2.429666 -0.15584201 0.12759508 19
2.6645503 -0.17090778 -0.51900047 49
2.4276915 -0.1561408 0.21283433 20
2.4443891 -0.15764314 -0.38795751 53
2.4128029 -0.15602896 0.29687375 70
2.434566 -0.15786301 -0.29955488 63
2.4206517 -0.15738505 0.38420308 60
2.4494522 -0.15925759 -0.21475175 19
2.4057696 -0.1568391 0.46862692 17
2.4434249 -0.15972224 -0.12832777 16
2.403486 -0.1575328 0.55607903 57
2.4363725 -0.16011535 -0.042618778 59
6.3015575 -0.41523507 1.6921589 129
2.6059997 -0.17491774 -0.69984674 14
2.4241469 -0.1631366 0.042409346 64
2.6520519 -0.17893876 -0.61366647 30
2.4310999 -0.16445695 0.12769975 19
2.6365149 -0.17835268 -0.51365787 50
2.4271317 -0.1646141 0.21283433 19
2.4438241 -0.16617469 -0.38795751 51
2.4201653 -0.16499032 0.2978487 66
2.422117 -0.16554807 -0.29809242 63
2.408263 -0.16502346 0.38232586 60
2.4468935 -0.16767056 -0.21457744 21
2.4032488 -0.1651013 0.46824533 17
2.4388673 -0.16797593 -0.12811844 16
2.3990331 -0.16565308 0.55517924 57
2.4238293 -0.16779029 -0.042409346 59
6.3116326 -0.43803155 1.6952648 129
2.5861025 -0.18265228 -0.69467032 19
2.4235628 -0.17159742 0.042409346 67
2.6358604 -0.18709128 -0.61006725 46
2.4384799 -0.17350911 0.12811844 20
2.6182513 -0.18630067 -0.51022327 43
2.4106436 -0.17195131 0.21143983 19
2.443229 -0.17470421 -0.38795751 49
2.4156146 -0.1731534 0.29736122 66
2.4254844 -0.1742864 -0.2985799 63
2.4037316 -0.17314503 0.38170013 60
2.4323828 -0.17520882 -0.21335725 19
2.3987412 -0.1732064 0.46748206 17
2.4382663 -0.17648816 -0.12811844 17
2.4023275 -0.17430831 0.55607903 55
2.4172456 -0.17581484 -0.042304631 64
6.2985048 -0.4592177 1.6921589 129
2.5642574 -0.19010721 -0.68897635 30
2.4149723 -0.17946345 0.042269729 64
2.6254745 -0.19556721 -0.60781777 54
2.423949 -0.18055591 0.12738572 19
2.6156273 -0.19529277 -0.50984168 74
2.4040682 -0.17991889 0.21091689 21
2.4229059 -0.18175395 -0.38482881 54
2.4110367 -0.18128675 0.29687375 68
2.4248614 -0.18275185 -0.2985799 60
2.4031444 -0.18111514 0.38170013 60
2.4238091 -0.18309799 -0.21266 19
2.3961647 -0.18143031 0.46710047 70
2.4336519 -0.1846959 -0.12790908 16
2.3978183 -0.18239731 0.55517924 57
2.418643 -0.1839814 -0.042339537 61
6.2930946 -0.47980809 1.6911237 130
2.5616519 -0.19890741 -0.68845868 37
2.4004083 -0.18638714 0.042025398 61
2.5995543 -0.20230691 -0.601969 46
2.4252951 -0.18917128 0.1274904 21
2.6149297 -0.20442182 -0.50984168 63
2.4093845 -0.18877646 0.21143983 24
2.4222898 -0.18978761 -0.38482881 54
2.3945901 -0.18803781 0.29492384 34
2.4242418 -0.19079198 -0.2985799 63
2.4103746 -0.19012389 0.38295162 22
2.4251416 -0.19171457 -0.21283433 20
2.3896782 -0.1889111 0.46595559 78
2.4210801 -0.19181871 -0.12728105 17
2.3972001 -0.19034776 0.55517924 57
2.4239666 -0.19289885 -0.042444255 64
6.3029366 -0.50269371 1.6942296 129
2.5802338 -0.20896049 -0.69363505 43
2.3977497 -0.19460322 0.041990492 34
2.6027169 -0.21169579 -0.6028688 46
2.4306266 -0.19769858 0.12780441 48
2.6181509 -0.21341112 -0.51060492 67
2.4087453 -0.19676521 0.21143983 57
2.417675 -0.19791944 -0.38420308 53
2.3721564 -0.19460994 0.29224271 19
2.4136689 -0.19843972 -0.29736122 69
2.3880749 -0.19633549 0.37951005 18
2.4244926 -0.19975558 -0.21283433 21
2.3929174 -0.19757456 0.46671882 67
2.416415 -0.19993933 -0.12707172 18
2.3771005 -0.19710407 0.55068022 57
2.4193277 -0.20060547 -0.042374443 39
6.3050847 -0.52391213 1.6952648 129
2.5775638 -0.21780325 -0.69311744 40
2.4010763 -0.20289013 0.042060301 19
2.6020005 -0.22032553 -0.6028688 49
2.4179809 -0.20516866 0.12717639 80
2.605653 -0.2215509 -0.50831515 63
2.4080436 -0.20517211 0.21143983 59
2.4248784 -0.20660648 -0.3854546 53
2.3932548 -0.20433281 0.29492384 19
2.4031084 -0.20559655 -0.29614252 63
2.3775342 -0.20382658 0.37794572 19
2.4198103 -0.20787635 -0.2124857 32
2.3922491 -0.20550868 0.46671882 67
2.4177287 -0.20812263 -0.12717639 59
2.3803167 -0.20532067 0.55158001 58
2.3947053 -0.20698288 -0.041955583 18
6.3032174 -0.54591781 1.6952648 128
2.5826004 -0.22685666 -0.69467032 122
2.4003534 -0.2112702 0.042060301 18
2.6089807 -0.23009169 -0.60466844 48
2.4053133 -0.21255289 0.12654836 75
2.6009927 -0.2298447 -0.50755197 52
2.3954422 -0.21210197 0.21039395 75
2.4162719 -0.21437134 -0.38420308 58
2.3885725 -0.21233402 0.29443637 19
2.4162169 -0.21521653 -0.2978487 23
2.368938 -0.21142209 0.37669426 20
2.4131167 -0.21578942 -0.21196276 69
2.3856511 -0.21333335 0.46557397 70
2.4149981 -0.21638256 -0.12707172 79
2.3757038 -0.2132798 0.55068022 55
2.3879933 -0.21480323 -0.041850869 18
2.3916359 -0.21891862 0.041920681 19
2.6081614 -0.23919733 -0.60466844 46
2.3985898 -0.22039945 0.12623434 73
2.6001327 -0.23937626 -0.50755197 42
2.382745 -0.21978229 0.2093481 70
2.4036679 -0.22213528 -0.38232586 56
2.3917699 -0.22103573 0.29492384 19
2.4016144 -0.22236829 -0.29614252 21
2.3740861 -0.22023731 0.37763283 18
2.4044132 -0.22347394 -0.2112655 67
2.3731241 -0.22098361 0.46328428 61
2.4161775 -0.22541806 -0.12717639 60
2.3710253 -0.221623 0.54978037 57
2.403157 -0.22462641 -0.042130109 18
2.5828342 -0.24551426 -0.69518799 52
2.3848455 -0.2271142 0.041815966 19
2.6014473 -0.24819984 -0.60331875 43
2.3997941 -0.22896042 0.126339 67
2.618825 -0.25031903 -0.5113681 34
2.3819635 -0.22809829 0.2093481 68
2.3950124 -0.22976974 -0.3810744 51
2.3672318 -0.22752152 0.29199898 20
2.3928795 -0.2304081 -0.2951676 22
2.365438 -0.22776577 0.37638137 21
2.3996522 -0.23148292 -0.21091689 64
2.3664761 -0.22869948 0.46213943 67
2.4014602 -0.23250343 -0.12644368 64
2.3741167 -0.23027438 0.55068022 58
2.3963876 -0.23243451 -0.042025398 20
2.5457811 -0.24737324 0.68535286 29
2.5896518 -0.2552866 -0.69725859 26
2.3820891 -0.23482516 0.04178106 20
2.6064279 -0.25739974 -0.60466844 36
2.3830798 -0.23576282 0.12550163 70
2.6433327 -0.26197603 -0.51632917 54
2.3851178 -0.2368052 0.20969671 72
2.3981686 -0.23810095 -0.38170013 56
2.3664644 -0.23537029 0.29199898 20
2.384201 -0.23755464 -0.29419261 20
2.3685598 -0.23641369 0.3770071 19
2.3948643 -0.23946141 -0.21056828 69
2.3617976 -0.23615508 0.46137619 64
2.3986886 -0.24026661 -0.126339 60
2.3578279 -0.23658946 0.54708099 57
2.3935719 -0.24059799 -0.041990492 18
2.5449023 -0.25625819 0.68535286 25
2.6060879 -0.26563588 -0.70191729 14
2.3812549 -0.24313879 0.04178106 20
2.6248999 -0.26847914 -0.60916746 28
2.3783112 -0.24325764 0.12529229 70
2.6365907 -0.2701399 -0.51518428 49
2.3843195 -0.24471322 0.20969671 72
2.3894632 -0.24566258 -0.38044867 56
2.3656285 -0.24362937 0.29199898 19
2.3715098 -0.24465336 -0.29273018 20
2.3559728 -0.24305053 0.37512988 18
2.3940573 -0.24740174 -0.21056828 69
2.3609588 -0.24439783 0.46137619 64
2.393862 -0.24822614 -0.12612967 60
2.3531113 -0.24441569 0.5461812 58
2.3748598 -0.2466747 -0.041676346 18
2.5767035 -0.26809466 0.69415271 34
2.8068705 -0.29600462 -0.75626928 3
2.3844125 -0.2514534 0.041850869 20
2.3814197 -0.25197834 0.12550163 70
2.6375837 -0.27954859 -0.51556593 51
2.3596759 -0.25051054 0.20760499 72
2.3886354 -0.25358498 -0.38044867 54
2.3569117 -0.25063306 0.291024 21
2.3845029 -0.25398803 -0.29443637 23
2.3551099 -0.25127292 0.37512988 18
2.3773301 -0.25406331 -0.20917378 62
2.3601353 -0.2522257 0.46137619 64
2.3930256 -0.25616309 -0.12612967 56
2.3522878 -0.25221753 0.5461812 57
2.3759725 -0.25517654 -0.041711252 18
2.5642273 -0.27584758 0.69104689 15
2.8327606 -0.30823654 -0.76351619 3
2.3696051 -0.2582584 0.041606538 21
3.2932935 -0.35951096 -0.76483357 2
2.3825111 -0.2605066 0.12560631 73
2.3548708 -0.2579003 0.20725635 70
2.3798811 -0.26105973 -0.37919718 54
2.3639152 -0.25972593 0.29199898 22
2.3697894 -0.26078993 -0.29273018 20
2.3502917 -0.25905943 0.37450415 21
2.3724682 -0.26192293 -0.20882516 62
2.3435843 -0.25914812 0.45832324 67
2.3920708 -0.26493225 -0.12612967 60
2.3494561 -0.26021248 0.54573125 62
2.3790424 -0.26390964 -0.04178106 18
2.5594089 -0.28437009 0.69001162 20
2.8392911 -0.31948113 -0.76558679 3
2.3626812 -0.26626989 0.04150182 21
3.3035724 -0.37289056 -0.767533 2
2.3736019 -0.26833975 0.12518762 73
3.9191351 -0.44375771 -0.76667058 1
2.3578694 -0.26697797 0.20760499 68
2.3710573 -0.26889032 -0.37794572 53
2.3471682 -0.26659611 0.29004908 20
2.3727624 -0.26992261 -0.29321766 20
2.3512895 -0.26789558 0.37481701 19
2.3754513 -0.27106845 -0.20917378 62
2.3426187 -0.26773605 0.45832324 67
2.3791778 -0.27233505 -0.12550163 60
2.3446145 -0.2683787 0.54483145 62
2.3701124 -0.27171648 -0.041641444 18
2.546834 -0.29242668 0.68690574 24
2.8611281 -0.33256203 -0.77179843 3
2.3676481 -0.27562144 0.041606538 21
3.2789559 -0.38228819 -0.76213419 2
2.3647153 -0.27569833 0.12476893 73
3.9136624 -0.45697993 -0.76590741 1
2.3568749 -0.27561817 0.20760499 74
2.3700557 -0.27757886 -0.37794572 54
2.3422322 -0.27473462 0.2895616 20
2.361948 -0.27704719 -0.29199898 23
2.3503399 -0.27610147 0.37481701 20
2.3744907 -0.27935871 -0.20917378 62
2.3397198 -0.27568194 0.45794162 70
2.3762293 -0.28040424 -0.12539697 64
2.335922 -0.27564782 0.54303181 62
2.3711355 -0.28022274 -0.041676346 18
2.5381238 -0.30040675 0.68483526 26
2.8638458 -0.34250686 -0.7728337 3
2.3687067 -0.28370914 0.041641444 21
3.3008888 -0.39594457 -0.767533 2
2.359822 -0.28306279 0.12455959 73
3.9043283 -0.46901894 -0.76438087 1
2.355948 -0.28343233 0.20760499 72
2.3651996 -0.28496414 -0.37731999 54
2.3413081 -0.28250021 0.2895616 20
2.355104 -0.28416479 -0.29126775 22
2.3298001 -0.28152421 0.37168834 20
2.3695953 -0.28675255 -0.20882516 67
2.3407419 -0.28367543 0.45832324 67
2.3752863 -0.28828254 -0.12539697 64
2.3272569 -0.28245333 0.54123223 66
2.3602676 -0.28687778 -0.04150182 19
2.5390315 -0.30905527 0.68535286 33
2.8435204 -0.34964418 -0.76765728 2
2.3598139 -0.29058492 0.04150182 21
3.2840848 -0.40498045 -0.76393378 2
2.3588197 -0.29129836 0.12455959 73
3.8832672 -0.47955739 -0.76056474 1
2.3431313 -0.28977615 0.20655911 68
2.3681626 -0.29329145 -0.37794572 54
2.3403585 -0.2902627 0.2895616 19
2.3540976 -0.29238391 -0.29126775 20
2.3288033 -0.28965503 0.37168834 19
2.3567684 -0.29313329 -0.20777929 67
2.3358917 -0.29095069 0.45755997 67
2.3743172 -0.29615769 -0.12539697 64
2.3262568 -0.29057527 0.54123223 64
2.3552835 -0.29461849 -0.041432012 19
2.5091841 -0.31431445 0.67758828 32
2.8307831 -0.35811305 -0.76455152 3
2.3409309 -0.29655856 0.041187681 21
3.2981172 -0.41840366 -0.767533 2
2.3577886 -0.29953042 0.12455959 73
3.8815696 -0.49310958 -0.76056474 1
2.3341997 -0.29694769 0.20586187 68
2.3553669 -0.30005831 -0.3760685 56
2.3393309 -0.29843032 0.2895616 20
2.3530626 -0.30059946 -0.29126775 22
2.3218997 -0.29703033 0.37074974 19
2.3478258 -0.30034694 -0.20708205 69
2.3231781 -0.29760596 0.45527029 67
2.3732691 -0.30444378 -0.12539697 64
2.3290939 -0.29919022 0.54213202 68
2.3601909 -0.30360359 -0.041536726 22
2.5080717 -0.32307121 0.67758828 38
2.8371785 -0.36898869 -0.76662207 3
2.3478131 -0.30576107 0.041327298 22
3.2966366 -0.4299137 -0.767533 2
2.3567286 -0.30775881 0.12455959 76
3.9187589 -0.51174015 -0.768197 1
2.3331487 -0.30509374 0.20586187 68
2.3503881 -0.30776528 -0.37544277 54
2.3264656 -0.30504581 0.28809914 21
2.3500307 -0.30855292 -0.291024 23
2.3306415 -0.30642095 0.37231407 23
2.3506598 -0.30947027 -0.20743066 67
2.3143392 -0.30468851 0.45374379 67
2.360311 -0.31115991 -0.12476893 69
2.3241715 -0.30680838 0.54123223 36
2.3531692 -0.31105417 -0.041432012 22
2.5088439 -0.33207759 0.67810595 41
2.8358071 -0.37938499 -0.76662207 2
2.3447497 -0.31368947 0.041292395 23
3.2796638 -0.43934849 -0.76393378 2
2.3457425 -0.31465581 0.12403623 79
3.8973994 -0.52348614 -0.76438087 1
2.3399134 -0.31470543 0.20655911 70
2.345329 -0.3158505 -0.37481701 54
2.3214521 -0.31263494 0.28761166 25
2.3371356 -0.31516242 -0.2895616 23
2.3334727 -0.31508318 0.3729398 42
2.3456163 -0.3171398 -0.20708205 69
2.3093159 -0.31264222 0.45298058 20
2.3551965 -0.31927222 -0.12455959 69
2.3095143 -0.31349003 0.53808296 21
2.3481061 -0.31872842 -0.041362204 22
2.5076694 -0.34083301 0.67810595 42
2.8459489 -0.39085862 -0.76972789 2
2.339622 -0.32173645 0.041222587 27
3.3011978 -0.45455593 -0.76933259 2
2.3287449 -0.32106897 0.12319885 69
3.8955481 -0.53708744 -0.76438087 1
2.3348532 -0.32232639 0.20621049 43
2.3442121 -0.32403538 -0.37481701 53
2.3202906 -0.32114142 0.28761166 68
2.330066 -0.32290885 -0.28883037 22
2.3225191 -0.32227615 0.37137547 77
2.3484421 -0.32587326 -0.20743066 67
2.3101549 -0.32097149 0.4533622 18
2.356046 -0.32776666 -0.12466426 73
2.3026156 -0.32074326 0.53673321 20
2.3469219 -0.3273325 -0.041362204 25
2.4968369 -0.34868583 0.67551774 36
2.8330894 -0.39917323 -0.76662207 2
2.3285842 -0.32850456 0.041048057 64
3.2995911 -0.46607652 -0.76933259 2
2.3236549 -0.3286365 0.12298951 22
3.8780985 -0.54848278 -0.76132792 1
2.3297684 -0.32991591 0.20586187 21
2.3469782 -0.33277082 -0.37544277 56
2.323086 -0.32979682 0.28809914 70
2.3289247 -0.33104038 -0.28883037 27
2.3135576 -0.32926792 0.37012401 75
2.3354552 -0.33238444 -0.20638479 69
2.3070769 -0.32875645 0.45298058 19
2.3529103 -0.33570668 -0.12455959 69
2.2976236 -0.32822776 0.53583342 20
2.3477447 -0.33580595 -0.04139711 66
2.4344096 -0.34863549 0.65895331 32
2.8125589 -0.40629813 -0.76144564 3
2.321486 -0.3357721 0.040943347 67
3.2748005 -0.47423992 -0.76393378 2
2.3205755 -0.33605391 0.12288483 20
3.9033613 -0.56596047 -0.76667058 1
2.3049419 -0.33461145 0.20377012 20
2.3301637 -0.33868816 -0.3729398 58
2.3101344 -0.33618864 0.28663671 70
2.339541 -0.34088516 -0.2902928 51
2.3065886 -0.33608377 0.36918539 72
2.3263946 -0.33938423 -0.20568755 24
2.303973 -0.33652395 0.45259899 21
2.3260331 -0.34016073 -0.12319885 21
2.3041766 -0.33737522 0.537633 20
2.322875 -0.34011301 -0.040978249 62
2.3969231 -0.3513824 0.64911819 37
2.8340557 -0.41950786 -0.76765728 3
2.3144252 -0.34259015 0.040838633 78
3.2654994 -0.48395416 -0.76213419 2
2.3233397 -0.34473848 0.12309418 20
3.8897104 -0.57785136 -0.76438087 1
2.317555 -0.34470695 0.2049903 21
2.32512 -0.3458322 -0.37231407 58
2.3011532 -0.34267798 0.28566176 70
2.3344707 -0.34805593 -0.28980532 90
2.3054013 -0.3441332 0.36918539 72
2.3192842 -0.34661931 -0.20516461 21
2.2892523 -0.34213102 0.44992763 19
2.3268673 -0.34816784 -0.12330353 19
2.2991908 -0.34443685 0.53673321 20
2.3236513 -0.34851593 -0.041013155 71
2.3899505 -0.35888642 0.64756525 51
2.8288288 -0.42832518 -0.76662207 2
2.3171697 -0.35126638 0.040908441 84
3.2753499 -0.49710447 -0.76483357 2
2.3202093 -0.35214141 0.12298951 23
3.8877728 -0.59074688 -0.76438087 1
2.3045807 -0.35059243 0.20394444 21
2.3238988 -0.3539463 -0.37231407 56
2.2960181 -0.35010988 0.28517428 68
2.3155806 -0.35350642 -0.28761166 75
2.3042476 -0.35177627 0.36918539 74
2.3200915 -0.35460949 -0.20533893 20
2.288044 -0.35011992 0.44992763 19
2.3276119 -0.35659045 -0.12340819 18
2.2883434 -0.35098326 0.53448373 21
2.3224828 -0.35621953 -0.041013155 71
2.3371918 -0.3588931 0.63358909 44
2.8349526 -0.4393805 -0.76869255 3
2.3140159 -0.35864213 0.040873535 81
2.3110714 -0.35901195 0.12257081 23
2.4695354 -0.38406986 -0.4857997 1
2.3092492 -0.35955438 0.20446737 20
2.3227122 -0.36165062 -0.37231407 58
2.2948446 -0.35772181 0.28517428 64
2.30655 -0.35995886 -0.28663671 77
2.2873919 -0.35737804 0.36668244 68
2.3267133 -0.36393753 -0.20603617 20
2.28881 -0.3580088 0.45030925 20
2.3343098 -0.36554316 -0.12382689 19
2.2813911 -0.35766423 0.53313398 20
2.313323 -0.36308408 -0.040873535 71
2.3092067 -0.36285093 0.62634212 44
2.799135 -0.44333947 -0.75937515 3
2.3088 -0.36609107 0.040803727 81
2.5828688 -0.41001046 -0.60376859 2
2.3098042 -0.36707687 0.12257081 25
2.5302937 -0.40211734 -0.4980115 4
2.2883675 -0.36407962 0.20272426 19
2.3214357 -0.36975625 -0.37231407 56
2.293582 -0.36573017 0.28517428 74
2.3092003 -0.36863393 -0.28712422 77
2.2822292 -0.36473686 0.36605671 70
2.3136892 -0.36976466 -0.2049903 21
2.2856081 -0.36568594 0.44992763 21
2.3349915 -0.37400499 -0.12393155 20
2.283977 -0.36624271 0.53403378 20
2.3001952 -0.36925516 -0.040664107 79
2.2907596 -0.36815056 0.62168342 39
2.6354752 -0.42685387 -0.7153759 7
2.2976384 -0.37254778 0.040629201 84
2.5583391 -0.41527706 -0.59836978 17
2.3065374 -0.37481701 0.12246615 22
2.5618179 -0.41630059 -0.50449902 49
2.2929821 -0.37302503 0.20324717 21
2.3006339 -0.37468204 -0.36918539 58
2.2962096 -0.3743729 0.28566176 72
2.3118176 -0.37733182 -0.28761166 77
2.2848413 -0.37333819 0.36668244 72
2.3084519 -0.3771961 -0.20464167 22
2.2785048 -0.37271115 0.44878277 21
2.3238168 -0.3805396 -0.12340819 18
2.2807617 -0.37389779 0.53358394 20
2.3048122 -0.37825361 -0.040768825 82
2.2761164 -0.37395221 0.61805987 48
2.5462971 -0.42153677 -0.6915645 13
2.2943513 -0.38023877 0.040594298 90
2.5587966 -0.42452374 -0.59881973 54
2.3071852 -0.38319325 0.12257081 23
2.5680962 -0.42652717 -0.50602549 73
2.2897007 -0.38069999 0.20307288 19
2.2993121 -0.38271046 -0.36918539 58
2.2792242 -0.37977573 0.28371185 70
2.2987382 -0.3834396 -0.28614923 77
2.283524 -0.38131151 0.36668244 70
2.3130167 -0.38623625 -0.20516461 21
2.2655718 -0.37872022 0.44649309 21
2.3126249 -0.38700065 -0.12288483 19
2.2813644 -0.38217884 0.53403378 21
2.3015056 -0.38596582 -0.040733919 79
2.2767024 -0.38221487 0.61857754 49
2.29301 -0.38824525 0.040594298 90
2.5342429 -0.42954504 -0.59342086 51
2.2822042 -0.38723519 0.12131476 21
2.5317509 -0.42957726 -0.49915636 57
2.2922864 -0.38935748 0.2034215 20
2.2960148 -0.39040306 -0.36887249 60
2.2700567 -0.386397 0.2827369 66
2.2895582 -0.39012763 -0.28517428 74
2.2743902 -0.38795155 0.36543098 70
2.3077264 -0.39363784 -0.204816 21
2.2584302 -0.38563487 0.44534823 19
2.3033853 -0.39372483 -0.12246615 19
2.2608082 -0.38685319 0.52953476 22
2.3001442 -0.39399725 -0.040733919 79
2.2696424 -0.38918027 0.6170246 49
2.2936113 -0.39658767 0.040629201 88
2.532728 -0.43838859 -0.59342086 54
2.2808387 -0.39519924 0.12131476 23
2.5263672 -0.43774179 -0.49839315 64
2.2810981 -0.39565426 0.20254995 21
2.2946379 -0.39841527 -0.36887249 63
2.2726057 -0.39499846 0.28322437 66
2.2823153 -0.39709646 -0.28444308 69
2.2613459 -0.39385465 0.36355373 70
2.306268 -0.40209344 -0.204816 21
2.2590046 -0.39385313 0.44572985 20
2.3078995 -0.40279293 -0.12278017 19
2.267123 -0.39608407 0.5313344 21
2.2810268 -0.39892349 -0.040419776 85
2.2644639 -0.39643413 0.61598933 49
2.5055187 -0.4422414 -0.68172938 46
2.2882745 -0.4038963 0.040559392 84
2.5177493 -0.44485334 -0.59027153 51
2.2774785 -0.40281057 0.12121009 22
2.5189462 -0.44597161 -0.49724829 58
2.2658999 -0.40157843 0.20132977 20
2.2951074 -0.40716797 -0.36918539 69
2.2712131 -0.40292895 0.28322437 62
2.2906878 -0.40679628 -0.28566176 74
2.2599573 -0.40174583 0.36355373 68
2.2930808 -0.40804702 -0.20377012 23
2.2633443 -0.40316299 0.44687468 21
2.3064077 -0.4112491 -0.12278017 19
2.2541454 -0.40233633 0.52863497 21
2.2796204 -0.40688333 -0.040419776 85
2.2535579 -0.40263733 0.61340117 52
2.4868486 -0.44790277 -0.67707068 36
2.271035 -0.4094421 0.040280156 84
2.523773 -0.45546278 -0.59207118 51
2.2878513 -0.41288623 0.12183812 22
2.5193059 -0.45511064 -0.49762988 55
2.2605629 -0.40877634 0.20098113 19
2.2800653 -0.41271397 -0.3669953 60
2.2736275 -0.41195849 0.28371185 68
2.2833216 -0.41412657 -0.28493056 69
2.2527099 -0.40857449 0.36261514 67
2.2916424 -0.41604888 -0.20377012 22
2.2599916 -0.4107101 0.44649309 23
2.3069229 -0.41965488 -0.12288483 19
2.2565618 -0.41090053 0.52953476 21
2.2781863 -0.41483819 -0.040419776 82
2.2483375 -0.4098084 0.6123659 53
2.4852698 -0.45658076 -0.67707068 38
2.2696645 -0.41697091 0.040280156 84
2.5088325 -0.46136224 -0.58892184 53
2.2883608 -0.42123142 0.1219428 27
2.5138404 -0.46319041 -0.49686664 52
2.263041 -0.41738746 0.20132977 20
2.2689714 -0.41848123 -0.36543098 58
2.2527277 -0.41589192 0.28127447 68
2.279984 -0.42133534 -0.28468683 74
2.2493277 -0.41607618 0.36230227 68
2.2901762 -0.42404562 -0.20377012 22
2.2508953 -0.41677243 0.44496658 21
2.289808 -0.42439082 -0.12204745 19
2.2513547 -0.41767037 0.52863497 22
2.2806566 -0.42351812 -0.040489584 85
2.2506921 -0.41836014 0.61340117 53
2.4932365 -0.46659651 -0.67965883 42
2.2701607 -0.42525911 0.040315062 90
2.5110376 -0.47083521 -0.5898217 53
2.2575054 -0.42329633 0.12037271 22
2.5161498 -0.47224835 -0.49762988 52
2.2655606 -0.42562541 0.20167838 19
2.2733204 -0.42749402 -0.36636955 63
2.2512624 -0.42375284 0.28127447 70
2.2628932 -0.42635107 -0.2827369 74
2.2537591 -0.42463014 0.36324087 65
2.2887573 -0.43163779 -0.20377012 22
2.2494268 -0.42462698 0.44496658 24
2.2824254 -0.43126875 -0.12173345 19
2.240309 -0.42371577 0.52638549 24
2.2792394 -0.43107879 -0.040489584 85
2.245496 -0.42510271 0.6123659 53
2.4896946 -0.47493467 -0.67914116 35
2.2667737 -0.43241024 0.040280156 88
2.5056338 -0.47842848 -0.58892184 53
2.2638612 -0.43267366 0.1207914 26
2.5106294 -0.48029071 -0.49686664 55
2.2640612 -0.43353111 0.20167838 20
2.2718904 -0.43503028 -0.36636955 60
2.2498448 -0.43121597 0.28127447 68
2.2653658 -0.43460077 -0.28322437 71
2.2406235 -0.43025953 0.36136368 67
2.2833238 -0.43887234 -0.2034215 23
2.2480061 -0.43208402 0.44496658 24
2.2868662 -0.43996707 -0.12204745 20
2.2312372 -0.42966849 0.52458584 30
2.2639756 -0.4363828 -0.040245246 88
2.2439983 -0.43293837 0.6123659 53
2.4748313 -0.48061022 -0.67551774 24
2.2711394 -0.44146481 0.04038487 90
2.5135131 -0.48903275 -0.59117132 51
2.262337 -0.44057336 0.1207914 26
2.5032418 -0.48748779 -0.49572179 58
2.2450109 -0.43760595 0.20010957 21
2.2684193 -0.44257978 -0.36605671 66
2.2444293 -0.43830585 0.28078699 66
2.2618868 -0.4421249 -0.28298062 69
2.2352307 -0.43731952 0.36073789 62
2.270124 -0.44414636 -0.20237562 22
2.242631 -0.43917382 0.44420335 57
2.2813966 -0.44717875 -0.12183812 20
2.2258992 -0.43670401 0.52368605 63
2.2585144 -0.44351226 -0.040175438 88
2.2329955 -0.43890581 0.60977769 56
2.5015655 -0.49486956 -0.68328232 19
2.25193 -0.44589415 0.040070724 88
2.515614 -0.49856126 -0.59207118 48
2.2588263 -0.44807908 0.12068672 28
2.5169308 -0.49927881 -0.49877474 51
2.2356527 -0.44388774 0.19941233 26
2.2571733 -0.44857016 -0.36449236 63
2.2565143 -0.44884863 0.28249314 38
2.2564361 -0.44924241 -0.28249314 69
2.2433772 -0.44704956 0.36230227 20
2.264652 -0.45128909 -0.20202701 24
2.2391593 -0.44661537 0.44382176 82
2.2837389 -0.45592159 -0.12204745 20
2.228183 -0.44523492 0.52458584 64
2.2530308 -0.45060888 -0.04010563 79
2.2276611 -0.44593933 0.60874242 54
2.5414863 -0.51199192 -0.69467032 7
2.2327178 -0.45019487 0.039756581 32
2.5081277 -0.50618279 -0.59072149 31
2.2572484 -0.45596114 0.12068672 53
2.5151727 -0.50806147 -0.49877474 51
2.2399485 -0.45287344 0.19993527 73
2.2517214 -0.45566282 -0.36386663 63
2.229641 -0.45159969 0.27932456 20
2.2626364 -0.45869383 -0.28346813 67
2.2301874 -0.45252076 0.36042506 19
2.2591577 -0.45839903 -0.20167838 24
2.2414343 -0.45521021 0.444585 83
2.2782192 -0.46309483 -0.12183812 27
2.2380731 -0.4553411 0.52728528 74
2.2377276 -0.45567757 -0.039861299 45
2.227984 -0.4540984 0.60926002 57
2.7875962 -0.57170439 -0.76248091 3
2.2350504 -0.45878994 0.039826389 24
2.5349786 -0.52081746 -0.59746999 8
2.2497742 -0.46263078 0.12037271 80
2.5191531 -0.51802433 -0.49991959 49
2.238354 -0.4606896 0.19993527 67
2.2443128 -0.46232429 -0.362928 58
2.2202744 -0.45777643 0.27834961 21
2.2493565 -0.46418187 -0.2820057 65
2.2305286 -0.46070239 0.36073789 18
2.259495 -0.46668521 -0.20185271 43
2.2206056 -0.459057 0.44076881 74
2.260942 -0.46780705 -0.12100074 63
2.2173877 -0.45919889 0.52278626 76
2.2380817 -0.4638918 -0.039896201 21
2.228277 -0.46226519 0.60977769 54
2.8082769 -0.58616811 -0.76869255 3
2.2490947 -0.46986037 0.04010563 24
3.2618058 -0.68202084 -0.76933259 2
2.2520554 -0.47129935 0.12058206 86
2.4885049 -0.52078241 -0.49419534 12
2.234782 -0.46809164 0.19976096 71
2.2658856 -0.47501934 -0.36668244 40
2.226434 -0.46715432 0.27932456 20
2.2535508 -0.47325468 -0.2827369 24
2.2173083 -0.4660477 0.3588607 19
2.2637014 -0.4757989 -0.20237562 70
2.2189896 -0.46680558 0.44076881 74
2.2632043 -0.47651944 -0.12121009 83
2.2157712 -0.4669362 0.52278626 74
2.2521019 -0.47500283 -0.040175438 23
2.2228694 -0.46924248 0.60874242 56
2.7910962 -0.59275669 -0.76455152 3
2.251353 -0.47853988 0.040175438 24
3.2670295 -0.69502449 -0.77113223 2
2.2406292 -0.47707793 0.1200587 79
2.2311857 -0.47547433 0.19958666 74
2.2603498 -0.48210174 -0.36605671 39
2.2209072 -0.47409448 0.27883708 21
2.2402372 -0.47862956 -0.28127447 19
2.2098727 -0.47254553 0.35792211 19
2.2405951 -0.47911501 -0.20045821 78
2.2192664 -0.47495928 0.4411504 77
2.2654331 -0.48525321 -0.12141944 86
2.2141278 -0.47466785 0.52278626 76
2.2484751 -0.48244175 -0.040140536 25
2.2117739 -0.47497082 0.6061542 58
2.7927866 -0.60331166 -0.76558679 3
2.2379417 -0.48386011 0.039966013 24
3.2645836 -0.70642436 -0.77113223 2
2.2350464 -0.48405078 0.11984935 76
2.2353683 -0.48412052 -0.444585 2
2.2217238 -0.48157147 0.1988894 74
2.2393484 -0.48580095 -0.362928 36
2.2231183 -0.48268631 0.27932456 19
2.2307935 -0.48476043 -0.28029951 20
2.2120702 -0.48109612 0.35854784 20
2.2369621 -0.48650977 -0.20028389 84
2.2041667 -0.47978014 0.4384791 74
2.2617741 -0.49273297 -0.12131476 71
2.2086494 -0.48156345 0.52188647 76
2.2506845 -0.49114007 -0.040210344 24
2.2025533 -0.4810397 0.60408366 58
2.8057585 -0.61637259 -0.76972789 3
2.2284267 -0.48995134 0.039826389 24
3.2697105 -0.71949077 -0.77293181 1
2.2333431 -0.49184966 0.11984935 76
2.2566726 -0.49698752 -0.44916439 2
2.2239203 -0.49018145 0.19923802 76
2.2337813 -0.49276376 -0.36230227 36
2.20979 -0.48787579 0.27786213 21
2.2310262 -0.49297273 -0.28054324 19
2.2123063 -0.48924133 0.3588607 18
2.2333047 -0.49388504 -0.20010957 78
2.2063124 -0.48831969 0.43924233 79
2.2444403 -0.49716946 -0.12047738 71
2.2126627 -0.49053553 0.52323616 76
2.2430997 -0.49769399 -0.04010563 25
2.2008605 -0.48872513 0.60408366 58
2.799819 -0.62532061 -0.76869255 3
2.2306061 -0.49859947 0.039896201 27
3.2291443 -0.72239101 -0.76393378 2
2.2141578 -0.49532866 0.1189073 74
2.2434292 -0.5022881 -0.44687468 2
2.2183077 -0.49707016 0.1988894 74
2.2262647 -0.49926126 -0.36136368 34
2.2119472 -0.49645588 0.27834961 21
2.2235682 -0.49906415 -0.27981204 20
2.2164538 -0.49787372 0.35979933 19
2.2393427 -0.50342578 -0.20080683 78
2.2045944 -0.4960182 0.43924233 79
2.2348974 -0.50324601 -0.1200587 71
2.1958146 -0.4944455 0.51963693 76
2.2433879 -0.50556934 -0.040140536 22
2.2011125 -0.4964458 0.60460132 54
2.8128018 -0.6380204 -0.7728337 3
2.2406409 -0.50864989 0.04010563 25
3.2495346 -0.73827612 -0.76933259 2
2.212503 -0.50266832 0.1189073 74
2.2398367 -0.50928956 -0.44649309 4
2.2244179 -0.50619197 0.19958666 72
2.2323012 -0.50839567 -0.36261514 35
2.2102885 -0.50378823 0.27834961 21
2.2102885 -0.50378823 -0.27834961 20
2.1974571 -0.50126702 0.35698348 19
2.2337763 -0.50996202 -0.20045821 81
2.1971955 -0.50201428 0.43809745 77
2.235163 -0.51109958 -0.12016336 77
2.1922634 -0.50129002 0.51918703 79
2.2339017 -0.51122147 -0.040000916 25
2.2051029 -0.505036 0.6061542 58
2.8031406 -0.64561015 -0.77076316 3
2.2233529 -0.51248401 0.039826389 25
3.2546644 -0.75080013 -0.77113223 2
2.216573 -0.51173621 0.11922132 76
2.2362225 -0.51627266 -0.44611144 5
2.2071974 -0.5099774 0.19819216 74
2.2344522 -0.51668555 -0.36324087 34
2.2008698 -0.50932479 0.27737463 21
2.2123845 -0.51239634 -0.27883708 20
2.1937699 -0.5084886 0.35667065 20
2.2184861 -0.51421744 -0.19923802 76
2.2012563 -0.51062864 0.43924233 74
2.2412381 -0.52031553 -0.12058206 74
2.1905 -0.50893933 0.51918703 79
2.2243128 -0.51720458 -0.039861299 24
2.1920373 -0.51010305 0.60304838 58
2.7971077 -0.65451074 -0.76972789 2
2.2137625 -0.51841807 0.039686773 25
3.2672024 -0.76571375 -0.77473146 2
2.2147734 -0.51947033 0.11922132 79
2.2267613 -0.52228212 -0.444585 8
2.2054038 -0.51767886 0.19819216 76
2.2172506 -0.52086806 -0.36073789 35
2.2068083 -0.51882142 0.27834961 21
2.2144468 -0.52102506 -0.27932456 21
2.1919818 -0.5161432 0.35667065 20
2.2166777 -0.52195829 -0.19923802 84
2.1841731 -0.51470679 0.43618938 79
2.2413521 -0.52859414 -0.12068672 71
2.1887102 -0.51658249 0.51918703 82
2.2205477 -0.52450603 -0.039826389 23
2.1864834 -0.51686275 0.60201317 58
2.7910469 -0.66337705 -0.76869255 3
2.2080486 -0.52521694 0.039616965 24
3.2417603 -0.77169836 -0.76933259 2
2.2129464 -0.5271982 0.11922132 76
2.2306542 -0.53141677 -0.44572985 10
2.2035832 -0.525374 0.19819216 76
2.2173407 -0.52906305 -0.36105078 36
2.1972604 -0.52467716 0.27737463 21
2.2048919 -0.52690631 -0.27834961 20
2.1940091 -0.52471036 0.35729638 19
2.2187178 -0.53061968 -0.19958666 84
2.1785443 -0.52141392 0.43542615 74
2.218128 -0.53129715 -0.11953534 74
2.194474 -0.5260365 0.52098668 79
2.2245369 -0.53365344 -0.039931107 24
2.1846659 -0.52449191 0.60201317 58
2.8150053 -0.67946142 -0.77593952 2
2.2062018 -0.53292125 0.039616965 24
3.2390468 -0.78300953 -0.76933259 2
2.2052691 -0.53351068 0.1189073 79
2.2478678 -0.54381639 -0.44954604 14
2.201736 -0.53306276 0.19819216 76
2.2078011 -0.53493917 -0.35979933 36
2.1799819 -0.52860153 0.27542472 22
2.1953228 -0.532727 -0.27737463 22
2.1960032 -0.53329802 0.35792211 20
2.2168522 -0.53836119 -0.19958666 84
2.1805265 -0.52994257 0.43618938 74
2.214319 -0.53856462 -0.11943066 71
2.1774766 -0.53000641 0.51738745 79
2.2226605 -0.54141527 -0.039931107 24
2.1846986 -0.53257209 0.60253078 61
2.7937336 -0.68517286 -0.77076316 2
2.2081177 -0.54195708 0.039686773 25
3.2437253 -0.79673535 -0.77113223 2
2.1917555 -0.53834677 0.11827926 76
2.2306073 -0.54830253 -0.44649309 17
2.1997674 -0.54112893 0.19819216 76
2.2115798 -0.54444408 -0.36073789 34
2.1895947 -0.53943717 0.27688718 21
2.1914279 -0.54029453 -0.27713093 23
2.1845386 -0.53859591 0.35635775 21
2.2187328 -0.54743731 -0.19993527 84
2.1709454 -0.53604853 0.43466291 70
2.2123301 -0.54667687 -0.11943066 69
2.1679523 -0.53611237 0.51558781 82
2.2071683 -0.54581016 -0.039686773 22
2.1865766 -0.54112297 0.60356599 59
2.7913249 -0.6949206 -0.77076316 2
2.2063084 -0.54927653 0.039686773 25
3.2335014 -0.80560303 -0.76933259 2
2.1937392 -0.54696059 0.11848862 76
2.2267747 -0.55561012 -0.44611144 20
2.1881998 -0.54639083 0.19732061 79
2.2135952 -0.55273211 -0.36136368 34
2.1916456 -0.54765767 0.27737463 21
2.1992533 -0.54996657 -0.27834961 21
2.1749802 -0.5442999 0.35510629 21
2.199414 -0.5508225 -0.19836646 81
2.1748693 -0.54467553 0.43580776 72
2.2201917 -0.55643791 -0.11995402 74
2.1737235 -0.54519504 0.51738745 79
2.1994312 -0.55205083 -0.039582059 22
2.1659381 -0.54404604 0.59838963 61
2.7815127 -0.70228142 -0.76869255 2
2.194684 -0.55452532 0.039512251 22
3.2533412 -0.82261777 -0.77473146 2
2.1898801 -0.55412483 0.11838394 71
2.2135007 -0.56010181 -0.44382176 18
2.1747873 -0.55070966 0.19627473 79
2.1963336 -0.55657369 -0.3588607 34
2.1858723 -0.55432868 0.27688718 21
2.1934721 -0.55666339 -0.27786213 21
2.1749814 -0.5523749 0.35541913 20
2.1994088 -0.55898732 -0.19854078 84
2.1596355 -0.54887879 0.43313646 70
2.2143648 -0.56319988 -0.11974468 77
2.16803 -0.55181801 0.5164876 79
2.2091179 -0.5626865 -0.039791487 24
2.1640258 -0.55160326 0.59838963 61
2.7938905 -0.71630973 -0.7728337 3
2.1869237 -0.56069297 0.039407536 24
3.254225 -0.83493757 -0.77563125 2
2.1879325 -0.56176555 0.11838394 74
2.2209404 -0.57065374 -0.44572985 20
2.1824024 -0.56115776 0.19714628 74
2.194279 -0.5646199 -0.3588607 33
2.1781564 -0.5604713 0.27615595 23
2.1895931 -0.56382161 -0.27761838 23
2.1730399 -0.55996358 0.35541913 20
2.1974442 -0.56666136 -0.19854078 84
2.1633122 -0.55826223 0.43428129 77
2.1987488 -0.56781632 -0.11901198 69
2.1716533 -0.56122333 0.51783729 76
2.1974597 -0.56789261 -0.039616965 26
2.1620872 -0.5591538 0.59838963 59
2.7801554 -0.72314 -0.76972789 3
2.1809835 -0.56769717 0.039337724 27
3.232285 -0.84194714 -0.77113223 2
2.1820927 -0.56839257 0.11817461 74
2.2113354 -0.57642192 -0.44420335 20
2.1842861 -0.56977814 0.19749491 76
2.188472 -0.5712781 -0.35823497 34
2.1684051 -0.56644404 0.275181 23
2.1855912 -0.57134104 -0.27737463 23
2.171072 -0.56754553 0.35541913 24
2.1877429 -0.57231146 -0.19784354 84
2.1537533 -0.56382138 0.43275481 45
2.1928895 -0.57447565 -0.11880264 71
2.1527157 -0.56435281 0.51378822 23
2.1993327 -0.57657385 -0.039686773 27
2.1582539 -0.56620729 0.59787202 58
2.7888217 -0.73579717 -0.7728337 2
2.1868231 -0.57696706 0.039477345 24
3.2294753 -0.85266113 -0.77113223 2
2.1704404 -0.5734551 0.11765125 67
2.197922 -0.58112645 -0.44191366 20
2.1784315 -0.57638001 0.19714628 72
2.1922944 -0.58004791 -0.35917357 33
2.162677 -0.57261556 0.27469352 37
2.1721714 -0.57553506 -0.27591223 24
2.1576211 -0.57208288 0.35354191 73
2.1972861 -0.58301032 -0.1988894 87
2.1575646 -0.57247096 0.4338997 20
2.1890421 -0.58123183 -0.11869796 66
2.1470656 -0.57048756 0.51288843 22
2.187644 -0.58167821 -0.039512251 25
2.1581309 -0.57423425 0.59838963 61
2.7714362 -0.74104893 -0.76869255 3
2.1809323 -0.58356321 0.039407536 45
3.2189493 -0.86191273 -0.76933259 2
2.1723855 -0.58168256 0.11786059 53
2.1921899 -0.58739549 -0.4411504 25
2.1707349 -0.58205277 0.19662334 26
2.1902564 -0.58769691 -0.35917357 32
2.1568305 -0.57913154 0.27420604 66
2.1797347 -0.58568943 -0.27713093 22
2.1538048 -0.57872212 0.35322908 77
2.1799486 -0.58615482 -0.19749491 84
2.1555531 -0.57999873 0.4338997 22
2.1889284 -0.58938879 -0.11880264 69
2.1507058 -0.57949966 0.51423806 23
2.1818411 -0.58788896 -0.039442439 39
2.1487539 -0.57937598 0.59631914 59
2.7576454 -0.74768549 -0.76558679 2
2.1635451 -0.58660597 0.039128296 80
3.2311194 -0.87666464 -0.77293181 2
2.1703417 -0.58926207 0.11786059 21
2.1958098 -0.59658837 -0.44229528 27
2.1609998 -0.58753562 0.19592611 26
2.1768584 -0.59184736 -0.35729638 33
2.16256 -0.5883652 0.275181 64
2.1682036 -0.59030712 -0.27591223 26
2.1498654 -0.58571756 0.35291618 68
2.1702001 -0.59166443 -0.19679767 67
2.1365707 -0.58249605 0.4304651 18
2.1927421 -0.5982213 -0.11911664 43
2.1506524 -0.58714169 0.51468801 25
2.1797757 -0.59550136 -0.039442439 66
2.1429918 -0.58585417 0.59528387 61
2.7775049 -0.76296651 -0.77179843 2
2.1576278 -0.59309441 0.039058488 85
3.2130079 -0.88380331 -0.76933259 2
2.1663458 -0.59630424 0.1177559 22
2.1994982 -0.60542971 -0.44344014 30
2.1609602 -0.59522766 0.19610041 23
2.1671617 -0.59734273 -0.35604486 53
2.1547523 -0.59432697 0.2744498 74
2.1814382 -0.60209727 -0.27786213 89
2.1592324 -0.5963738 0.3547934 72
2.1605442 -0.59673613 -0.19610041 21
2.1364169 -0.59047359 0.43084675 21
2.1733158 -0.60108012 -0.11817461 22
2.1485898 -0.59464532 0.51468801 25
2.1815383 -0.60417408 -0.039512251 91
2.1372099 -0.59229904 0.59424853 59
2.7711027 -0.77162081 -0.77076316 2
2.1613235 -0.60223269 0.039163202 84
3.2099032 -0.89501339 -0.76933259 2
2.1565561 -0.60171556 0.11733723 22
2.1898074 -0.61099321 -0.44191366 30
2.1607883 -0.60330296 0.19627473 21
2.1650634 -0.60490388 -0.35604486 69
2.1411939 -0.59863782 0.27298734 76
2.1582944 -0.60382497 -0.275181 84
2.1533332 -0.60284221 0.35416767 72
2.179553 -0.61018264 -0.19801784 24
2.1343427 -0.59792739 0.43084675 19
2.1635118 -0.60650629 -0.1177559 18
2.1352429 -0.59898359 0.51198858 26
2.1640139 -0.60746181 -0.03923301 85
2.1388495 -0.60080063 0.59528387 61
2.7795479 -0.7844373 -0.77386898 2
2.155359 -0.60868645 0.03909339 88
3.2067597 -0.90621257 -0.76933259 2
2.1429112 -0.60597879 0.11670919 22
2.1724405 -0.6147387 -0.43886071 33
2.1625035 -0.61192679 0.19662334 23
2.1629388 -0.61245769 -0.35604486 69
2.1448209 -0.60773188 0.27371857 79
