# .PCD v0.7 - Point Cloud Data file format
VERSION 0.7
FIELDS x y z
SIZE 4 4 4
TYPE F F F
COUNT 1 1 1
WIDTH 1417
HEIGHT 1
VIEWPOINT 0 0 0 1 0 0 0
POINTS 1417
DATA ascii
-1.6830564 -0.050682545 -0.096013993
-4.0706601 -1.5449014 1.258599
0.23358577 0.87383008 -0.11413652
-2.2650487 -0.34399247 -0.017783567
0.21412742 0.86102229 -0.099655405
-2.2618482 -0.37058008 0.096040234
0.22581613 0.86065388 -0.076223597
-4.1042151 -1.3026099 0.3057701
0.20386511 0.84645838 -0.060901433
-4.1039839 -1.348639 0.49247256
0.20240378 0.84073001 -0.040518284
-4.0832887 -1.3848684 0.67898345
-0.92992049 0.33666641 -0.17337638
-4.0718732 -1.4273081 0.86826056
-1.3988051 0.10977638 -0.1567146
-4.0961385 -1.4882731 1.0677588
-1.694253 -0.0457654 -0.094321981
-4.0751705 -1.5263846 1.262049
0.24164325 0.87912381 -0.11078145
-2.2536135 -0.32612991 -0.01475729
0.21686321 0.86425692 -0.098166555
-2.2540824 -0.35429931 0.098508984
0.22493571 0.86250865 -0.075744152
-4.1196585 -1.2887037 0.31064451
0.21200609 0.8521812 -0.058505937
-4.1082864 -1.3302608 0.49644071
0.19970864 0.84180743 -0.040351197
-4.1071019 -1.3763518 0.68533784
-1.0308423 0.29945141 -0.1851173
-4.0765991 -1.4080861 0.87216491
-1.404238 0.11660129 -0.15491828
-4.1131401 -1.4753008 1.0741146
-1.6927195 -0.034994125 -0.091853365
-4.0899401 -1.5133934 1.2680831
0.23190451 0.87738329 -0.1132184
-1.4275227 0.069203019 0.0064421333
0.23935956 0.87537622 -0.091050416
0.21687287 0.86135215 -0.077063411
-4.1346698 -1.2755482 0.31531999
0.20752299 0.85249591 -0.058791645
-4.1129065 -1.311048 0.50061953
0.22244465 0.85377288 -0.035811558
-4.1149216 -1.3596914 0.68963885
-1.0427744 0.30152559 -0.18477964
-4.0843821 -1.3914888 0.87644911
-1.3967202 0.12872118 -0.15198512
-4.1244836 -1.4603498 1.0791743
-1.4453754 0.08661449 -0.074896932
-4.104672 -1.5003269 1.2741318
0.22751409 0.87775463 -0.11391798
-1.4271686 0.07790482 0.008334171
0.23859912 0.87700737 -0.090629667
-1.4305301 0.056169629 0.090271607
0.20517278 0.858796 -0.079254851
-4.1496453 -1.2623167 0.32001051
0.21216506 0.85647273 -0.057214916
-4.1274309 -1.2987301 0.50535816
0.21436644 0.85241348 -0.036609329
-4.1262398 -1.34477 0.6944086
-1.0565381 0.30288935 -0.18466657
-4.0987754 -1.3792694 0.88172376
-1.4127016 0.13002944 -0.1514217
-4.1231604 -1.4398768 1.0814514
-1.4543021 0.091616869 -0.073294133
-4.1003633 -1.4771812 1.2754169
0.22315937 0.87806427 -0.11463389
-1.4342308 0.083653212 0.010167796
0.22517651 0.87383491 -0.093735516
-1.4339621 0.063602567 0.092186838
0.21887314 0.86629748 -0.075277597
0.20950669 0.85755014 -0.057121232
0.21718061 0.85574329 -0.035527505
-4.1357274 -1.3289189 0.69895267
-1.0739691 0.30278444 -0.18501352
-4.1099858 -1.3643708 0.88662279
-1.4069304 0.14131409 -0.1486755
-4.1308889 -1.423075 1.085779
-1.4413044 0.1063745 -0.070430502
-4.0561624 -1.4333091 1.2666569
0.23308235 0.88394696 -0.11073121
-1.4321618 0.093545496 0.012186453
0.22617567 0.87629247 -0.092775822
-1.4355505 0.071882844 0.094070539
0.2198298 0.86889035 -0.07435447
0.20498443 0.85800171 -0.057373211
-1.6154091 -0.055498958 0.27697065
0.2127012 0.85604382 -0.035674587
0.20459706 0.84770626 -0.016658552
-4.1321454 -1.353869 0.89356875
-1.4195793 0.1450479 -0.14755552
-4.1494522 -1.4107442 1.09255
-1.4373746 0.11701959 -0.068107367
-3.9909434 -1.3789966 1.2525578
0.24308479 0.88967258 -0.10686943
-1.4338694 0.10215372 0.014224287
0.22171825 0.87676901 -0.093307868
-1.4407456 0.078503728 0.096020244
0.22083938 0.87138462 -0.073457226
-1.5735893 -0.0035656691 0.18621068
0.20780337 0.8612963 -0.056157634
-1.5670433 -0.02222538 0.2742213
0.21004754 0.85711789 -0.035510935
-1.5538197 -0.038306952 0.36192828
0.18909413 0.84344971 -0.018075943
-4.1290936 -1.3318293 0.89605206
-4.156693 -1.3946974 1.096674
-1.4535451 0.11886621 -0.066907138
-3.9358501 -1.3305118 1.2409654
0.23335534 0.88799059 -0.10929361
-1.4388666 0.10840064 0.016004346
0.23545867 0.88390279 -0.088855684
-1.4439301 0.085598767 0.097842604
0.21097195 0.86957186 -0.075203523
-1.551578 0.015684962 0.1866951
0.22165173 0.86880428 -0.052753516
-1.5451777 -0.0028120279 0.27375323
0.20743608 0.85811508 -0.035367474
-1.530334 -0.017902136 0.36026722
0.19195658 0.84677339 -0.017141297
-4.1397734 -1.3176277 0.90075845
-1.356236 0.18880713 -0.13751334
-4.179697 -1.3865302 1.1041646
-1.4548852 0.12675941 -0.064984173
-3.925343 -1.3062654 1.2405109
0.22540927 0.8870219 -0.11113657
-1.4511707 0.11145604 0.017664742
0.23472744 0.88554692 -0.088433817
-1.4454312 0.093895733 0.099724524
0.20651603 0.86999822 -0.075606808
-1.5113044 0.043086171 0.18608555
0.22639185 0.87264585 -0.05121392
-1.5087678 0.023187518 0.27185842
0.21763664 0.86435503 -0.033089824
-1.4961598 0.0078451633 0.3572157
0.21318126 0.85768449 -0.01385276
-4.1916685 -1.3223853 0.91278201
-1.3410034 0.20362002 -0.13402653
-4.1784248 -1.3651719 1.106647
-1.4747317 0.12718177 -0.063946649
-3.9429398 -1.2953823 1.2473075
0.2282064 0.89016515 -0.10953328
-1.4638062 0.11533403 0.019534033
0.23756087 0.8887043 -0.086968824
-1.4616868 0.096081674 0.10201177
0.22393918 0.87881112 -0.0707829
-1.4985015 0.058615446 0.18720265
0.22374064 0.87379527 -0.051104218
-1.4761696 0.048029661 0.27044302
0.21128798 0.86406684 -0.033502743
-1.4656005 0.032032847 0.35468149
0.19576699 0.85289431 -0.015449382
-4.2137423 -1.3113928 0.91983479
-1.2337446 0.25675464 -0.12227461
-4.1862502 -1.3473282 1.1112185
-1.4726868 0.13744295 -0.06162703
-3.9538903 -1.2800953 1.2525585
0.227404 0.89200366 -0.10906252
-1.4672556 0.12324166 0.021558728
0.23313075 0.88918996 -0.087500572
-1.4796193 0.097186744 0.10426661
0.22682559 0.88195056 -0.069465734
-1.46193 0.084667325 0.18687917
0.22292751 0.87566298 -0.050626107
-1.4597287 0.065160155 0.27055088
0.20865256 0.86517066 -0.033333428
-1.4383388 0.053931713 0.35247788
0.21708041 0.86364019 -0.012204215
-4.2229419 -1.2951703 0.92451578
-1.2237487 0.26876026 -0.11941776
-4.2042346 -1.3354654 1.1178458
-1.4649038 0.14961481 -0.059129089
-3.9504671 -1.2586274 1.2540491
0.24479657 0.90002477 -0.10301952
-1.4685104 0.13119006 0.023417089
0.22148037 0.88690281 -0.090054855
-1.4754047 0.1076026 0.10594549
0.21327746 0.87888753 -0.072047383
-1.4449563 0.10077494 0.1875044
0.22403717 0.87805182 -0.049829975
-1.4573865 0.074822426 0.27185577
0.22449887 0.87334931 -0.030221358
-1.4252062 0.068584085 0.3520923
0.2126466 0.86389375 -0.012222238
-4.2263613 -1.2772312 0.9280439
-1.2615767 0.26086891 -0.12085375
-4.2200546 -1.3235068 1.1238949
-1.4845808 0.14986479 -0.058141708
-3.957099 -1.2431915 1.2579949
0.22778344 0.89596772 -0.10764985
-1.4623678 0.14225137 0.025371417
0.23536074 0.89379764 -0.08566609
-1.4748166 0.11639655 0.10770023
0.21804631 0.88262022 -0.070322499
-4.2655239 -1.1342735 0.36145478
0.23436671 0.88388383 -0.04722739
-1.4931486 0.06729126 0.27692309
0.22377682 0.87504089 -0.029789254
0.2137568 0.86635417 -0.01155217
-4.2332926 -1.2609704 0.93219703
-1.2495353 0.27328897 -0.11792505
-4.2287602 -1.3080754 1.1284342
-1.4728661 0.16314709 -0.055568971
-3.9706826 -1.2311566 1.2637348
0.23070961 0.89888084 -0.10610731
-1.4709325 0.14708412 0.02712765
0.23831946 0.89673245 -0.084259897
-1.4686787 0.12753648 0.10931432
0.20813924 0.88099766 -0.07202284
-4.2943668 -1.1275985 0.36696503
0.23551029 0.88622457 -0.046444379
-1.4962358 0.074592352 0.27878627
0.23785353 0.88236177 -0.027010739
-4.2807622 -1.2158871 0.74813801
0.22413689 0.87240994 -0.0097561032
-4.2544932 -1.2513511 0.93888056
-1.278182 0.26939511 -0.11849542
-4.2320967 -1.2900808 1.1318293
-3.9737115 -1.2139513 1.2667911
0.22623014 0.89965141 -0.10671008
-1.4801211 0.1534788 0.029280137
0.2374891 0.89871299 -0.083754927
-1.4706435 0.13739675 0.11158259
0.22381914 0.88902348 -0.067659765
-4.3118281 -1.1117489 0.37259063
0.23651999 0.8889029 -0.045575783
-1.5054054 0.081030667 0.2815913
0.23883426 0.88514113 -0.026188299
-4.2695265 -1.1861973 0.75066251
0.2010203 0.86589909 -0.011919722
-4.2484159 -1.2249436 0.94138372
-4.2460332 -1.271966 1.1382389
-1.5000608 0.17117339 -0.052399501
-3.9889121 -1.1977234 1.2735913
0.24007297 0.90629756 -0.1018188
-1.4851198 0.16030812 0.031193223
0.23677373 0.90043783 -0.083315641
-1.4830024 0.14110506 0.11375404
0.21939832 0.889494 -0.068055212
-4.2804494 -1.0779502 0.37454525
0.22840154 0.88795412 -0.04656145
-1.5177264 0.084767044 0.28448129
0.23440784 0.88549453 -0.026326701
-4.2530999 -1.1584508 0.75176996
0.22811061 0.87837625 -0.0081098825
-4.2447453 -1.2028315 0.94384438
0.18339276 0.85627997 0.0073664375
-4.2638178 -1.2597101 1.1449435
-1.4957883 0.1817714 -0.050108969
-3.9921517 -1.1796646 1.2768559
0.23936933 0.90800971 -0.10138318
-1.4789796 0.17167628 0.033217721
0.22321403 0.89778543 -0.08629407
-1.4859719 0.14833981 0.11559456
0.21681875 0.89063781 -0.068022005
-4.2819829 -1.0584297 0.37856132
0.24249774 0.89503849 -0.043269828
-1.5172558 0.09412241 0.28608587
0.23369211 0.88724226 -0.02588217
-4.2688465 -1.1461575 0.75718659
0.24598473 0.88716173 -0.0054514259
-4.248178 -1.1840205 0.94757229
0.23469651 0.87830961 0.012139596
-4.274446 -1.244066 1.150116
-1.5173318 0.18167281 -0.049118146
-3.9932275 -1.1615949 1.2794533
0.22771245 0.90613127 -0.10426143
-1.4781988 0.18037462 0.035081789
0.23355848 0.90318853 -0.082945362
-1.500165 0.15140206 0.11784291
0.21239299 0.89115691 -0.068406016
-4.2926388 -1.0427914 0.38316795
0.24554557 0.89798754 -0.042147703
-1.5220792 0.10071623 0.28814867
0.2255789 0.88619494 -0.026606485
-4.2794604 -1.1305292 0.7620731
0.23970324 0.88678968 -0.0056737214
-4.2619963 -1.1709175 0.95301205
0.25637588 0.88852 0.014380407
-4.2828903 -1.2284217 1.1546872
-3.9998579 -1.1451948 1.2836189
0.22704166 0.90779704 -0.10383847
-1.4905405 0.18425465 0.0369328
0.2402215 0.90738165 -0.080563113
-1.4995484 0.16058618 0.11968489
0.21540034 0.8941474 -0.067130558
-4.3102717 -1.0310352 0.38804924
0.24857455 0.9009999 -0.041009933
-1.5325336 0.10538375 0.29088187
0.24721301 0.89602733 -0.022734061
-4.3009353 -1.1195958 0.76850861
0.25769168 0.89532721 -0.0030791536
-4.283339 -1.1600859 0.95998138
0.2445097 0.88596797 0.013908174
-4.2951999 -1.2134964 1.160265
0.24313861 0.8809458 0.03238719
-4.0117273 -1.1312294 1.2891586
0.23000431 0.91072696 -0.10229439
0.24138111 0.90970546 -0.079644188
-1.5007484 0.16900682 0.12157584
0.2183876 0.89720607 -0.065838248
-4.3245296 -1.0167961 0.39292404
0.24418044 0.90140283 -0.041281179
-4.3203449 -1.061053 0.58241773
0.24280626 0.89640236 -0.022868782
-4.3023539 -1.0999048 0.772129
0.24955767 0.89427006 -0.00351898
-4.2974329 -1.1459515 0.96567398
0.27371287 0.89887911 0.016716585
-4.3003092 -1.1952901 1.164284
0.24245298 0.8826766 0.032825917
-4.0200152 -1.1155772 1.2937911
0.23481655 0.91421586 -0.10020858
0.23886085 0.91081655 -0.079692394
-1.5129039 0.17258996 0.12370577
0.22324592 0.90086406 -0.064136118
-4.3276582 -0.99795175 0.3970665
0.23978269 0.90183312 -0.041545957
-4.3253365 -1.0429251 0.58662307
0.24959928 0.90075707 -0.021305434
-4.3106499 -1.0842116 0.7765612
0.25449902 0.89800036 -0.0024447888
-4.307868 -1.1301637 0.97072667
0.27307579 0.90050256 0.01712773
-4.3214679 -1.1842589 1.1718483
0.20443881 0.87014198 0.031668313
-4.0190721 -1.0966799 1.2959168
0.24148548 0.9182452 -0.097585648
0.23267978 0.91066474 -0.080720484
-1.5214906 0.17810196 0.12583354
0.22626781 0.90387201 -0.062857598
-4.3418145 -0.98360229 0.4019601
0.24660242 0.90601093 -0.039740503
-4.3446369 -1.031745 0.59215766
0.24149376 0.89975834 -0.022019133
-4.3228836 -1.0691593 0.78174084
0.26882294 0.90504581 -0.0003157109
-4.316103 -1.1144147 0.97523826
0.2462582 0.89242899 0.015486762
-4.3422632 -1.1739826 1.1792173
0.27855185 0.90011275 0.035224359
-4.0254688 -1.0801885 1.3000886
0.24453527 0.92100579 -0.096085787
0.24495858 0.9165321 -0.076926649
-1.5188966 0.18803895 0.12761383
0.23119915 0.90737903 -0.061194561
-4.3630056 -0.97302055 0.40715823
0.24967974 0.90897089 -0.038617775
-4.3421488 -1.0105245 0.59559065
0.24644589 0.90342206 -0.020746768
-4.3460407 -1.0586438 0.78850967
0.26069456 0.90402693 -0.0007471554
-4.3264327 -1.0985374 0.98030478
0.27185032 0.90367448 0.017929815
-4.3561926 -1.1595652 1.1852448
0.28167993 0.90311646 0.035782516
-4.0300312 -1.0628791 1.3037984
0.23280889 0.91941375 -0.098894224
0.2498666 0.91998243 -0.07506457
-1.5181234 0.19722486 0.12944627
0.2267732 0.90801209 -0.061552584
-4.3848424 -0.960567 0.41282478
0.23965478 0.90764016 -0.039890736
-4.3543262 -0.99533415 0.60058498
0.25891614 0.90961099 -0.018374823
-4.3655176 -1.0464716 0.7947793
0.26381588 0.90700561 9.2253089e-05
-4.3443027 -1.0848188 0.98692745
0.26368895 0.90269017 0.017794617
-4.3632193 -1.141072 1.1899137
0.2660661 0.89919657 0.035595179
-4.3314624 -1.1772861 1.3851883
0.23583835 0.92226398 -0.097372606
0.27436993 0.89880103 0.053485774
0.24548858 0.92059785 -0.075569987
-1.5266433 0.20281291 0.13158712
0.24475169 0.91574359 -0.057010859
-4.3933163 -0.94375467 0.4173812
0.24274737 0.91059786 -0.038769498
-4.3741703 -0.9821732 0.60660642
0.26013404 0.91199374 -0.01765801
-4.3647962 -1.0258977 0.79814345
0.25191617 0.90475237 -0.00073906407
-4.361805 -1.0718749 0.99334973
0.27058592 0.90701842 0.018773638
-4.3752484 -1.1257544 1.1955633
0.28422606 0.90768683 0.036735348
-4.3701077 -1.1738012 1.3980207
0.24995595 0.92839301 -0.092616856
0.27754116 0.90174127 0.05388321
0.25231421 0.92449522 -0.073265627
-1.5295448 0.21058083 0.13354504
0.24411494 0.91744936 -0.056580946
-4.390574 -0.92256451 0.4211477
0.24213916 0.91222858 -0.038358524
-4.3859315 -0.96771073 0.61140817
0.25578749 0.91231775 -0.017808214
-4.3658295 -1.0060973 0.80176431
0.27386862 0.91418344 0.0021652877
-4.3789444 -1.0597143 0.99957043
0.27000839 0.90857112 0.019164838
-4.3923063 -1.1135674 1.2022057
-4.378468 -1.1568718 1.4029496
0.26045093 0.93325561 -0.088983476
0.25355393 0.92673635 -0.072370633
0.24164659 0.91848761 -0.056578964
-4.3892841 -0.90300965 0.42481273
0.25276321 0.91756618 -0.035887569
-4.4016733 -0.95376992 0.61684537
0.25705087 0.91461569 -0.017113641
-4.3870034 -0.99446273 0.80834097
-4.3745089 -1.0375524 1.0019934
0.2694062 0.91020745 0.019576706
-4.4060507 -1.0988739 1.2082846
0.27739984 0.90886003 0.037330277
-4.3903389 -1.1414487 1.4088218
0.24874961 0.93167192 -0.0917916
0.26695201 0.90156233 0.054696113
0.26783672 0.93287575 -0.068179972
0.2391482 0.919626 -0.056552172
-4.4106121 -0.89113784 0.43031403
0.25966367 0.92163676 -0.034111731
-4.4025483 -0.93395662 0.62067229
0.25644109 0.91628832 -0.016693011
-4.4007907 -0.97976685 0.81385964
0.27648401 0.91860855 0.0033670887
-4.3900542 -1.0236473 1.0081184
0.26880983 0.91184604 0.019988716
-4.4269762 -1.0871298 1.2159967
-4.4075212 -1.1282558 1.4161196
0.25184405 0.93442065 -0.090297297
0.27388108 0.90592545 0.055107269
0.25606513 0.93118793 -0.070589721
0.24976635 0.92478186 -0.053698391
-4.4225807 -0.87561715 0.43515652
0.26094547 0.92388725 -0.033358142
-4.4144812 -0.91846025 0.62572092
0.26338154 0.92039722 -0.015195176
-4.4219012 -0.96791267 0.82048219
0.27209699 0.91904861 0.0033886619
-4.4073849 -1.0103946 1.0146003
-4.4297814 -1.0677736 1.2196693
0.25358176 0.90419471 0.037351806
-4.4192977 -1.1126926 1.4220178
0.25306946 0.93670452 -0.089322031
0.2732977 0.90755659 0.055516757
0.26106894 0.93448997 -0.068767563
0.25100869 0.9271211 -0.052851364
-4.4628482 -0.86962318 0.4423137
0.26785854 0.92796135 -0.031582296
-4.4282222 -0.903615 0.63098651
0.27412289 0.92566144 -0.01317469
-4.4226928 -0.94798994 0.82411569
0.27151802 0.92067468 0.0037966929
-4.4304824 -0.99835348 1.0223496
0.26382241 0.91394019 0.02056922
-4.4400764 -1.0504935 1.2251937
-4.43998 -1.1008303 1.4302986
0.26547483 0.94201058 -0.085177094
0.27457806 0.90993536 0.055942331
0.25672051 0.93514156 -0.069266632
0.25041372 0.92880648 -0.052428752
0.25219834 0.92497379 -0.033839166
-4.4422293 -0.88780606 0.63648927
0.27922523 0.92906415 -0.011971451
-4.432642 -0.93166161 0.8291195
-4.4422498 -0.98270416 1.0278478
0.26702735 0.91685665 0.021245971
-4.4587502 -1.0386415 1.2323248
0.27697793 0.91597867 0.039017946
-4.4426966 -1.081389 1.4338453
0.26865092 0.94458526 -0.083727717
0.27781463 0.91279864 0.056318037
0.24868643 0.93458712 -0.070730969
0.27945659 0.90917397 0.07345435
0.24233317 0.92819774 -0.053621843
0.27228138 0.90240824 0.091297865
0.25919068 0.92886096 -0.032111064
-4.4518423 -0.87230635 0.64114046
0.26923275 0.92763394 -0.012913972
-4.4514732 -0.91972613 0.83529395
-4.4353199 -0.96068335 1.0296876
0.26648334 0.91842127 0.02163776
-4.477396 -1.0266852 1.2394783
-4.4647837 -1.0709853 1.4424148
0.2662583 0.94561541 -0.083872169
0.27917412 0.91498744 0.056695215
0.25374997 0.93777436 -0.068938836
0.23424149 0.92763877 -0.05480285
0.24923569 0.89581615 0.093410522
0.2699846 0.93383294 -0.029734358
-4.4539475 -0.85399437 0.64495349
0.2648806 0.92809933 -0.013031557
-4.4705825 -0.9067924 0.84171402
-4.4503317 -0.9473021 1.0356591
0.27733332 0.9236908 0.022795014
-4.4908676 -1.0115488 1.245641
0.20359701 0.85415262 0.20140269
0.25635979 0.9448182 -0.086083621
0.2805157 0.91724628 0.057089504
0.27567667 0.94570118 -0.062977538
0.23738647 0.93054849 -0.053554595
0.25612998 0.9003166 0.093282156
0.27507871 0.93721682 -0.028321773
-4.4693556 -0.8395952 0.65047407
-4.4878054 -0.89304841 0.84787732
-4.4603982 -0.92992425 1.0410514
-4.4863963 -0.98825288 1.2478995
0.20295173 0.85605401 0.20187782
0.25952917 0.94746792 -0.084616676
0.25258529 0.94120532 -0.068081498
0.2500096 0.93601817 -0.050364673
0.22547722 0.8913542 0.0960548
0.27453691 0.93882561 -0.027920052
-4.4887595 -0.82557344 0.65666384
0.2732338 0.93432879 -0.010889143
-4.4864321 -0.87229919 0.85124004
0.27634695 0.93110311 0.0065861419
-4.4701042 -0.91339195 1.0462275
0.27431336 0.92639405 0.023496836
-4.5052147 -0.97516823 1.2553213
0.19510472 0.85507369 0.20428167
0.26457992 0.95058322 -0.08263132
0.27753738 0.9198333 0.057905573
0.26144934 0.94534135 -0.065390125
0.25511318 0.9392907 -0.048766151
0.24369788 0.89975798 0.095021248
0.26833907 0.93871647 -0.028514832
-4.4888186 -0.80650532 0.66026866
0.27462387 0.93643093 -0.010247342
-4.4924088 -0.85431862 0.85572499
0.27581146 0.93271518 0.0069882348
-4.4905086 -0.90188897 1.0532901
0.27189717 0.92733765 0.023758525
-4.521874 -0.96217608 1.2621222
0.21250665 0.86415309 0.19992615
0.2715444 0.95406514 -0.080152154
0.25714427 0.94598377 -0.065894008
0.25269932 0.94035751 -0.048761085
0.26199478 0.90795141 0.093934841
0.27919185 0.94358855 -0.026164681
0.26838306 0.9363718 -0.010614857
-4.5073252 -0.84060788 0.86141235
-4.4872093 -0.88040197 1.0560241
-4.5424466 -0.94957995 1.2700062
0.27565271 0.92615467 0.041461024
0.20469999 0.86309469 0.20230965
0.27101958 0.95567489 -0.079751298
0.27169463 0.95153326 -0.061855033
0.27622136 0.91881812 0.075861789
0.26161668 0.94461471 -0.046396315
0.25767598 0.9083364 0.094656043
0.2786991 0.94510412 -0.025787368
0.24748194 0.90032953 0.11399611
0.27359486 0.93958044 -0.0094628856
-4.5206323 -0.82524109 0.86705369
-4.4890709 -0.86190987 1.0595791
-4.5553789 -0.93500447 1.2760065
0.21131843 0.86780322 0.20083502
0.26860169 0.95689708 -0.079850286
0.27677968 0.95477605 -0.060051598
0.25347972 0.94431329 -0.047515661
0.25710452 0.91011578 0.0950986
0.27242756 0.94528002 -0.026312396
0.23185116 0.89701068 0.11623794
0.27111641 0.94081563 -0.0092735887
-4.5437908 -0.81131387 0.87460142
0.27615014 0.93812472 0.0083805956
-4.5009699 -0.84409857 1.0655792
-4.5636511 -0.91555154 1.2814362
0.27073801 0.92837542 0.042209189
0.20341802 0.86708277 0.20330162
0.27183717 0.95944399 -0.078411043
0.27438566 0.95588911 -0.060107425
0.2700204 0.95051205 -0.043624438
0.23955238 0.90610468 0.096913114
0.26810566 0.94585717 -0.02654849
0.23504394 0.90009117 0.11623678
0.2763308 0.94405663 -0.0081143975
-4.5420771 -0.79049802 0.87795752
-4.5122361 -0.8280313 1.0711408
-4.5731063 -0.89857459 1.2868381
0.2028181 0.86898524 0.20377409
0.26757777 0.96013814 -0.079045266
0.27388269 0.95749331 -0.059709214
0.27710789 0.95411873 -0.041683808
0.25603458 0.91351092 0.095941722
0.27522072 0.94954664 -0.024873316
0.24577695 0.90570951 0.11533275
0.27200446 0.94460207 -0.0082153529
-4.6707568 -0.81629741 0.90148503
-4.5271525 -0.81323242 1.0774298
0.2730858 0.93672341 0.026040399
-4.5880051 -0.88357496 1.2935226
0.18774134 0.86532593 0.2081548
0.27459079 0.96356606 -0.076581538
0.25828099 0.95525253 -0.062925965
0.24809849 0.94837391 -0.047030419
0.28013712 0.92328763 0.094309561
0.27283984 0.95056713 -0.024810269
0.22078347 0.89911687 0.11867601
0.26961461 0.94561875 -0.0080815554
0.24513876 0.90286362 0.13454898
-4.5194955 -0.79137039 1.0791872
0.26877555 0.93715113 0.026197391
-4.600739 -0.86874604 1.2995682
0.21256447 0.87676513 0.20173737
0.2647208 0.96286017 -0.07877396
0.27291831 0.96062678 -0.058932543
0.25902295 0.95288664 -0.04434295
0.27966768 0.92482483 0.094690338
0.27425647 0.95268589 -0.024095312
0.24662042 0.90973109 0.11594651
0.27486387 0.94880795 -0.0069364272
0.28204444 0.9174031 0.1290867
-4.5398693 -0.77843678 1.0865743
-4.6210613 -0.85557151 1.3075683
0.27448121 0.93656391 0.043947544
0.17563635 0.8652153 0.21209234
0.27173418 0.9663291 -0.076300889
0.2508778 0.95272219 -0.045430511
0.27345961 0.92470086 0.095594838
0.27565876 0.95487398 -0.023363635
0.25742072 0.91519558 0.11500308
0.28155735 0.91902244 0.12948735
-4.5511904 -0.76124668 1.0923958
-4.6250625 -0.83545065 1.3119538
0.15319854 0.85923707 0.21854043
0.26371491 0.96620977 -0.077945322
0.27761906 0.9652825 -0.056782089
0.26944306 0.95911378 -0.04123202
0.26537013 0.92393452 0.096651666
0.27518079 0.95648187 -0.022966176
0.26066872 0.91820949 0.1149832
0.26982182 0.91688222 0.13167544
-4.556602 -0.7429924 1.0969071
-4.6434503 -0.8214401 1.3195593
0.17808843 0.87053198 0.2120858
0.27527508 0.96635127 -0.056851193
0.26323977 0.95934683 -0.041960314
0.26706761 0.95608139 -0.023827016
0.26208922 0.92042214 0.11514732
0.26933509 0.91854346 0.13208564
-4.5765777 -0.73069131 1.1041248
-4.6541505 -0.80568266 1.3252249
0.19939011 0.88034827 0.20658617
0.28166476 0.97360271 -0.072081193
0.27100894 0.96707505 -0.057339042
0.27233833 0.96320009 -0.039699286
0.25781593 0.92090207 0.11603001
0.28389016 0.92511797 0.13008711
-4.5893312 -0.71485031 1.1101217
-4.6687613 -0.79021025 1.3319988
0.18058401 0.87580645 0.21206689
0.27362898 0.97360504 -0.073696792
0.27815571 0.97042203 -0.055180721
0.26802835 0.9639942 -0.040027902
-4.6396055 -0.71039736 1.1237524
-4.6835866 -0.77371764 1.3390195
0.19098377 0.88162553 0.20954101
0.27695975 0.9760229 -0.072293058
0.2656543 0.96517944 -0.039998367
0.27140483 0.96246743 -0.021680951
0.27918673 0.92722511 0.1315107
-4.6980963 -0.75807691 1.3458257
0.27161837 0.94642985 0.046381902
0.19041109 0.8836689 0.21004391
0.27272797 0.97681421 -0.072906867
0.27342749 0.97284901 -0.055250347
0.27094626 0.96813273 -0.038484685
-4.725513 -0.74666989 1.3557239
0.19353437 0.88687003 0.20951173
0.27241927 0.97018534 -0.037717775
0.27489147 0.93354845 0.11532432
-4.7788439 -0.74363649 1.371834
0.22235179 0.89863944 0.20185137
0.2706621 0.9755798 -0.054913253
0.26046559 0.969248 -0.039523564
0.26305896 0.9316901 0.11715664
0.2790111 0.92393136 0.16810827
0.20718461 0.89556336 0.20637093
0.25812483 0.9704017 -0.039503343
0.27403334 0.93674874 0.11610948
0.20668387 0.89745343 0.20683426
0.27671781 0.98429829 -0.069856718
0.24807346 0.97000074 -0.040915646
0.19883996 0.89693922 0.20934436
0.26687765 0.97576326 -0.036876
0.27400595 0.92767942 0.17020732
0.21308297 0.90352643 0.20568508
0.26646018 0.97739798 -0.036476277
0.28477296 0.93272525 0.16789918
0.21628982 0.90657461 0.20511268
0.26992428 0.97974002 -0.035377905
0.21214092 0.90726799 0.20659913
0.25985491 0.97951049 -0.036749944
0.28767785 0.93717533 0.16780524
0.20799243 0.90798855 0.20809175
0.25751945 0.98078841 -0.036701687
-4.8856277 -0.66339326 1.6420515
0.27064642 0.98507357 -0.033814251
-4.8755031 -0.63937914 1.6426322
0.28429133 0.93698001 0.18750726
0.2679686 0.98787725 -0.033395924
0.28391609 0.938604 0.18790185
0.26951343 0.98994511 -0.032630101
0.26871789 0.93595505 0.19252093
0.26547623 0.99932611 -0.030623838
0.27500352 1.2021937 -0.019478098
0.2719152 1.206426 -0.019379281
0.2776621 1.2220368 0.0022850446
0.27351609 1.2285653 -0.015491612
0.27811143 1.2236418 0.002622772
0.27378917 1.2213943 0.019536655
0.27395079 1.2300998 -0.015169054
0.26276365 1.2263851 0.019024946
0.27328345 1.2284644 0.0026439577
0.26321676 1.2279613 0.019355871
0.27286404 1.2215739 0.037370518
0.26540813 1.2362074 -0.015890725
0.27511692 1.2260126 0.020506281
0.26667508 1.2342054 0.0025258437
0.27183211 1.2289804 0.020608559
0.27207476 1.2377896 -0.014358215
0.26905939 1.2352359 0.0030715987
0.2494843 1.237819 0.019343093
0.23497146 1.2519728 -0.019397214
0.25820559 1.2405796 0.002208408
0.26140642 1.2358798 0.020494275
0.27291545 1.228757 0.038685344
0.20921773 1.2626008 -0.02277872
0.18502861 1.26661 -0.0052215308
0.24292701 1.2436806 0.019529954
0.26960358 1.2315904 0.038899966
0.16476738 1.2798114 -0.028786659
0.081812322 1.3032317 -0.015718564
0.26243344 1.2392062 0.021188177
0.25488093 1.2381009 0.038751431
0.27271688 1.2289757 0.056651231
0.24783605 1.2533205 -0.016717061
-0.0023627877 1.3340504 -0.024129294
0.25158584 1.2446258 0.020763002
0.25348425 1.2403214 0.039025694
0.26557815 1.2329389 0.057008572
0.19593716 1.273224 -0.023763821
-0.0053187609 1.3378872 -0.023989975
0.22559655 1.2550948 0.01931721
0.25212425 1.2426378 0.03931953
0.26610708 1.2345967 0.057353325
-0.0082578659 1.3417463 -0.023846596
0.056020498 1.3145064 0.0083815977
0.24510813 1.2469347 0.039461039
0.25903073 1.2387162 0.057742339
-0.0073782206 1.3444449 -0.023286641
0.01901406 1.3297791 0.0063808709
0.21723336 1.2581761 0.038979307
0.25580618 1.2417254 0.058133606
-0.017794788 1.3509884 -0.023903757
-0.049973726 1.3563898 0.0023377687
-0.29725879 1.4343342 0.024498746
0.25067043 1.2453036 0.058525994
-0.062257946 1.3637164 0.002047196
-0.28282684 1.4333639 0.025608853
0.2607241 1.2438349 0.058802892
-0.06132561 1.3664749 0.0026174933
-0.27413982 1.4340868 0.026506782
-0.38655835 1.4648607 0.064810947
0.27012566 1.2390008 0.076547414
-0.053220212 1.3783991 -0.056236759
-0.088635802 1.3791561 0.0013686419
-0.27483553 1.4382302 0.027175322
-0.38712353 1.4693822 0.065628558
-0.096870184 1.3637826 0.093650326
-0.081999004 1.3922672 -0.059749946
-0.089529574 1.3826814 0.0018380582
-0.27739948 1.4430482 0.027795345
-0.38578111 1.4732572 0.066427588
-0.34186012 1.4500855 0.10566462
-0.06246686 1.3880466 -0.05663757
-0.10354 1.3910015 0.0014919937
-0.27241069 1.4451973 0.028611243
-0.38253719 1.4764675 0.067204267
-0.34244245 1.4544635 0.10652188
-0.068908751 1.3936317 -0.057080343
-0.1249994 1.402179 0.00070387125
-0.26929885 1.4479963 0.029373497
-0.39625138 1.4856656 0.068173349
-0.34489435 1.4595051 0.10747058
0.26860371 1.2433797 0.095678672
-0.080875099 1.4014101 -0.058266506
-0.10467106 1.4043434 -0.029310063
-0.264301 1.4500933 0.030176908
-0.40238327 1.4922669 0.069068775
-0.36806339 1.4718379 0.10943247
0.25411439 1.2502161 0.097301394
-0.083557904 1.4056631 -0.058188789
-0.066428006 1.3929815 -0.025091887
-0.27055639 1.4563106 0.030708373
-0.40096015 1.4961951 0.069874778
-0.3836264 1.4816635 0.11105417
0.23590219 1.2584617 0.099267736
-0.091760278 1.4121219 -0.058852009
-0.074705005 1.399344 -0.025424249
-0.2692861 1.4597822 0.031419918
-0.39764494 1.4994313 0.070652843
-0.39349145 1.4895787 0.11241436
0.21398163 1.2681546 0.10158546
-0.08149153 1.4112952 -0.057034805
-0.090369821 1.4086679 -0.026459575
-0.27361733 1.4653637 0.032005191
-0.40745193 1.5075006 0.071616426
-0.39767903 1.4955262 0.11350124
0.20902985 1.2719978 0.10245536
-0.097016633 1.4207721 -0.05867061
-0.085600972 1.4100522 -0.02552256
-0.2723152 1.468846 0.032717139
-0.41159588 1.5135438 0.072508276
-0.39621049 1.4994471 0.11430271
0.19284326 1.2799166 0.10432568
-0.097776532 1.4243826 -0.058330059
-0.082735479 1.4120048 -0.024797
-0.18541813 1.4461558 0.00047126412
-0.41952926 1.5208323 0.073424771
-0.40034837 1.5054427 0.11539739
0.19727975 1.280377 0.10436337
-0.10225028 1.4293634 -0.058504142
-0.087204516 1.4170588 -0.024745829
-0.13225776 1.4286268 0.0040656626
-0.41613704 1.5241072 0.074206769
-0.40079147 1.5098758 0.11625836
0.19052196 1.2850198 0.10542321
-0.112149 1.4367976 -0.059368581
-0.089858532 1.4212537 -0.024543971
-0.068031132 1.4064603 0.0082498565
-0.41094583 1.5264481 0.074911505
-0.41422206 1.5194511 0.1178663
0.18749058 1.2882299 0.10613392
-0.10368705 1.4366522 -0.057812825
-0.09791255 1.4280242 -0.02479738
-0.066948593 1.4092399 0.0088154003
-0.43355519 1.5400207 0.076193154
-0.4070701 1.521294 0.11836889
0.16215634 1.3000394 0.10893705
-0.1080423 1.4418519 -0.057944477
-0.10230553 1.4331855 -0.024726607
-0.095458746 1.4240576 0.0077384412
-0.45243984 1.5520929 0.07739614
-0.39991874 1.5230936 0.11886165
0.18159145 1.2950103 0.10762704
-0.12150908 1.4509716 -0.059260905
-0.097480536 1.4345367 -0.023800716
-0.10540253 1.4314835 0.0077136755
-0.48426694 1.5694587 0.078878239
-0.39090723 1.5241261 0.11923996
0.17492604 1.299809 0.10871658
-0.11667782 1.4523512 -0.05818975
-0.099999547 1.4389589 -0.023555592
-0.40792412 1.5353333 0.12109052
0.19059175 1.2960442 0.10772011
-0.11731285 1.4560711 -0.057832122
-0.40074605 1.5370792 0.12156932
0.18395048 1.3008629 0.10881273
-0.092455506 1.4486578 -0.054191783
-0.36947376 1.5291173 0.12062653
0.17733699 1.3057301 0.10991463
-0.09854722 1.4547141 -0.054549262
0.21144527 1.2982768 0.087007806
0.19296122 1.3018056 0.10888431
-0.18627101 1.4971786 -0.065336108
0.19373715 1.3076847 0.088491693
0.21220732 1.2961985 0.1074544
0.18712121 1.3125455 0.089306012
0.21668178 1.2965503 0.10746488
0.20269036 1.3083299 0.088785306
0.18793774 1.3103719 0.11072934
0.19981366 1.307737 0.11001696
-0.20405418 1.506224 0.0075257421
0.20435458 1.3081881 0.11004588
-0.1807723 1.4996163 0.0092409253
0.20884985 1.3085164 0.11004967
-0.17573428 1.5011244 0.010048717
-0.24479926 1.5253843 0.044513375
0.22066849 1.3056957 0.10929853
-0.11918324 1.4854519 -0.020043731
-0.16343081 1.4992719 0.011195377
-0.25786561 1.5353549 0.045049191
0.23977643 1.2996502 0.10777737
-0.18281919 1.5189421 -0.024991497
-0.16384369 1.5032147 0.011729494
-0.2362963 1.5296657 0.045913756
0.22961366 1.3061634 0.10926591
-0.17597431 1.5195403 -0.023903772
-0.1787253 1.5139272 0.011592835
-0.22386241 1.5280119 0.046673581
0.21949142 1.312749 0.11076839
-0.16913503 1.5200967 -0.022825226
-0.1881215 1.522191 0.011724442
-0.21870786 1.529645 0.04736115
0.25310361 1.300078 0.1076717
-0.16589379 1.5223458 -0.022055909
-0.19205749 1.5279514 0.012113422
-0.21174127 1.5304012 0.048054695
-0.18603581 1.5357645 -0.023258507
-0.18335032 1.5276973 0.013069674
-0.2247529 1.5403407 0.048579916
0.26192138 1.3001413 0.10755482
-0.19349098 1.54333 -0.023368567
-0.18372625 1.5315795 0.013587579
-0.21957183 1.5419414 0.049258366
0.26996562 1.2985274 0.10710439
-0.20226449 1.5586025 -0.060936272
-0.2062695 1.5536041 -0.023908451
-0.19658577 1.5417569 0.013592169
-0.21258795 1.5426462 0.049939066
0.2236585 1.3255322 0.092451394
-0.21845901 1.5708039 -0.062439442
-0.19400239 1.5515016 -0.022395462
-0.1950388 1.5449736 0.014227897
-0.20920968 1.5450531 0.050594881
0.23897958 1.3205482 0.091771074
0.2896125 1.2934704 0.10577455
-0.20447391 1.5677489 -0.060303628
-0.19423223 1.5555984 -0.02190806
-0.21138692 1.5570614 0.014106408
-0.21301389 1.5509541 0.051219508
0.22901362 1.3274336 0.092902645
-0.21897173 1.5788392 -0.061636597
-0.20349884 1.5638913 -0.022199109
-0.20815986 1.559109 0.01476045
-0.2133621 1.55479 0.051795751
0.222646 1.3325772 0.093765721
-0.2102139 1.578616 -0.060117394
-0.21256238 1.5725718 -0.02241461
-0.21361184 1.5661252 0.015140474
-0.21524197 1.5600154 0.052465186
0.2415154 1.3257173 0.092789523
0.29190657 1.2981427 0.10669495
-0.21564919 1.5855494 -0.060316503
-0.21794999 1.5796547 -0.022304177
-0.22089005 1.5739272 0.015423939
-0.21002674 1.5615115 0.053117588
0.23521018 1.3309567 0.093670465
-0.23160678 1.5980909 -0.061757207
-0.21284389 1.5809321 -0.021413058
-0.22101122 1.5781378 0.016000599
-0.20489395 1.5628153 0.053731427
0.25043017 1.3256906 0.092932202
0.29344973 1.3012186 0.10729878
-0.23703778 1.6049774 -0.061967313
-0.22179502 1.5897517 -0.021603957
-0.23007756 1.5867765 0.016196787
-0.21393722 1.5715148 0.054363906
0.24951398 1.3282923 0.093405291
0.27636957 1.3115153 0.10966122
-0.24050969 1.6113 -0.061898902
-0.22716939 1.5967736 -0.021508336
-0.22474492 1.5884266 0.017018184
-0.22284633 1.5804477 0.055041164
0.2432552 1.3335781 0.094293892
0.28081751 1.3114715 0.10958306
-0.23528385 1.6127579 -0.060834944
-0.23418218 1.604943 -0.021508738
-0.22480631 1.5926685 0.017598197
-0.23356622 1.5902028 0.05569987
0.24237305 1.3362166 0.094773203
0.26383844 1.3219366 0.11197752
-0.22306877 1.6103815 -0.058963493
-0.24826926 1.6167765 -0.022071719
-0.23898119 1.6044014 0.017649427
-0.22650391 1.5907755 0.056345403
0.23972481 1.3397682 0.095394291
0.27538237 1.3182662 0.1110499
-0.24576592 1.6270728 -0.061155632
-0.24298495 1.6182603 -0.021144792
-0.24779779 1.6134119 0.017914608
-0.23891318 1.6015599 0.057025075
0.24419737 1.3397018 0.095452577
0.26914233 1.3234897 0.11220936
-0.2561757 1.6371815 -0.061909065
-0.26231664 1.6329269 -0.022114158
-0.26888567 1.6291212 0.017744988
-0.24958378 1.6113256 0.057683125
0.25220782 1.3377765 0.095219493
0.3054193 1.3070083 0.10828834
-0.252716 1.6394444 -0.061080918
-0.26048726 1.6363586 -0.021447316
-0.26361698 1.6305039 0.018509462
-0.25834531 1.6203947 0.058382034
0.23892313 1.3467743 0.096686304
0.29208842 1.315812 0.11028633
-0.2491594 1.6418605 -0.060223907
-0.25524682 1.6376783 -0.020555109
-0.25474876 1.6301118 0.019423932
-0.25482899 1.6227088 0.059007853
0.26459277 1.3355445 0.094996072
0.28583413 1.3209701 0.11143177
-0.25435001 1.6489903 -0.06039378
-0.26734036 1.6488711 -0.020928919
-0.26874751 1.6420394 0.019508392
-0.17566574 1.5840886 0.059298128
-0.23233467 1.6078882 0.098157361
0.20556891 1.3689557 0.10029094
0.297279 1.3170466 0.11045271
-0.24548757 1.6486117 -0.058916733
-0.23936677 1.6376345 -0.018339902
-0.26151758 1.6427613 0.020389304
-0.23752779 1.6150483 0.099120528
0.19251865 1.3783427 0.10183165
-0.26261538 1.6628897 -0.060418457
-0.24436933 1.6450975 -0.018167242
-0.24566865 1.6383836 0.021518171
0.14642715 1.4144174 0.058574617
-0.23557186 1.6185906 0.099804536
0.19006455 1.3821487 0.10249846
-0.26588088 1.6693075 -0.060341477
-0.24258989 1.6483002 -0.017549515
-0.24030507 1.6398025 0.022284821
0.16498768 1.406642 0.05883304
-0.25480276 1.6333462 0.10139157
0.17010325 1.3954911 0.10466564
-0.3053171 1.6966507 -0.064355895
-0.24416417 1.6536586 -0.017150849
0.2114464 1.3831778 0.058878146
-0.23015696 1.6241814 0.10098633
0.20620906 1.3783308 0.10203189
-0.3169294 1.7084725 -0.065173626
-0.245713 1.6590346 -0.016749799
-0.25039369 1.6544857 0.023141474
0.20905912 1.3870822 0.059278339
-0.24047226 1.6343551 0.10221212
0.23520261 1.364782 0.099958897
-0.31260329 1.7029228 -0.020966187
-0.23807061 1.6518831 0.024115711
0.21358734 1.3869486 0.059602506
-0.24192619 1.6398708 0.10306278
0.22924238 1.3704294 0.10091101
-0.29688233 1.6982324 -0.019339174
-0.14948052 1.5980748 0.063395277
-0.23486179 1.6401298 0.10342348
0.19548953 1.3917286 0.10433967
-0.33944982 1.7282996 -0.021786422
-0.19269079 1.6272182 0.064439654
-0.21730465 1.6345599 0.10328828
0.20348293 1.389614 0.10406447
-0.26447588 1.6958447 -0.057565421
-0.23110205 1.6683977 -0.013693601
-0.22880405 1.6526262 0.065465569
-0.2171033 1.6388643 0.10400751
0.26001832 1.3599072 0.099415377
-0.20128316 1.6619108 -0.050184667
-0.2906844 1.708859 -0.017308235
-0.22511703 1.6549478 0.066082224
-0.21515644 1.6421691 0.10463789
0.21951681 1.3854227 0.10351972
-0.231601 1.6849582 -0.053100497
-0.22035456 1.6708958 -0.01195842
-0.2078352 1.6560944 0.027857646
-0.21282554 1.6521482 0.066589594
-0.21147424 1.644457 0.10517611
0.22750181 1.3832507 0.10323195
-0.2211566 1.6830314 -0.051545605
-0.20817327 1.6679287 -0.010637313
-0.22983736 1.6738442 0.027819872
-0.20742941 1.6533781 0.067169741
-0.19574636 1.6396129 0.10507263
0.2630153 1.3649522 0.10037611
-0.22424769 1.6894815 -0.051472336
-0.21131396 1.6743248 -0.010364383
-0.20905244 1.6657246 0.028956845
-0.2071749 1.6576743 0.067812636
-0.19722915 1.6448902 0.10587069
0.23653257 1.3827971 0.10326982
-0.2104494 1.685352 -0.049569875
-0.20424831 1.6744218 -0.0094051212
-0.2189976 1.6763139 0.029261991
-0.19664514 1.6557479 0.068309948
-0.19526052 1.6481279 0.10648437
0.27533177 1.3622 0.10003833
-0.20341718 1.6854017 -0.04841046
-0.21072924 1.6829599 -0.0093552768
-0.20508093 1.6722409 0.030191302
-0.18102247 1.6506248 0.068717867
-0.1966992 1.6534266 0.10728453
0.25579852 1.376101 0.10230576
-0.21318144 1.6961322 -0.049063116
-0.19858921 1.6798224 -0.0080704093
-0.20138121 1.6744308 0.030847773
-0.18076539 1.6548491 0.069344193
-0.19811195 1.6587424 0.10808694
0.28075519 1.3634067 0.10032665
-0.21450913 1.701546 -0.048806727
-0.19996005 1.685184 -0.0076840222
-0.19937038 1.6776663 0.031458259
-0.17879111 1.6580234 0.069943041
-0.1824767 1.6536198 0.10792577
0.23064172 1.3960413 0.10559332
-0.20410955 1.6993916 -0.047300905
-0.20466816 1.6927164 -0.0075142682
-0.19734824 1.6808951 0.032066464
-0.18019551 1.6633132 0.070596918
-0.18047661 1.6568081 0.10852619
0.24876571 1.3874292 0.10426463
-0.19373369 1.6971748 -0.045807853
-0.19759136 1.6927053 -0.0065803826
-0.19699997 1.6851931 0.032633185
-0.18157464 1.6686194 0.071252838
-0.18524528 1.6642177 0.10951924
0.2668224 1.378697 0.10291281
-0.19004059 1.699273 -0.045032144
-0.20224458 1.7002747 -0.0064056665
-0.1932689 1.6873333 0.03327629
-0.17448908 1.6685781 0.071756825
-0.18320799 1.6674159 0.11011951
0.27803952 1.3740509 0.10221273
-0.18966502 1.7035542 -0.044610798
-0.18012697 1.6903727 -0.004526183
-0.19456935 1.6927155 0.033803284
-0.16909832 1.6695749 0.072284058
-0.17778438 1.6684694 0.11051559
0.2925967 1.3672178 0.10115901
-0.17932719 1.7012043 -0.043145731
-0.1764223 1.6924286 -0.0038304627
-0.18244547 1.6893728 0.034621254
-0.1737932 1.6770465 0.073002428
-0.16562897 1.6651959 0.11049715
0.29698673 1.3666668 0.10111191
-0.19381982 1.7154636 -0.044287577
-0.17947084 1.6987306 -0.0035849065
-0.16868329 1.6848571 0.035459325
-0.16849011 1.677861 0.073493645
-0.16705072 1.6703308 0.11125882
0.27109581 1.3853259 0.1041538
-0.17202997 1.7050966 -0.041658044
-0.17574412 1.7007735 -0.0028935373
-0.16506881 1.6867226 0.036047176
-0.17312711 1.6853747 0.07421796
-0.1683448 1.675638 0.1120517
0.29561877 1.3718534 0.10202465
-0.17655742 1.7127063 -0.041760564
-0.17874312 1.7071067 -0.0026440173
-0.16301209 1.6898363 0.036626905
-0.15779358 1.6795615 0.074486747
-0.16302502 1.6764405 0.11239704
0.30335173 1.3690984 0.10161988
-0.16800535 1.7111747 -0.040526927
-0.1634264 1.7012827 -0.001249969
-0.16104835 1.6927874 0.037175477
-0.1557318 1.6826582 0.07506232
-0.15760595 1.6773697 0.11276504
0.2876718 1.3814929 0.10365628
-0.16909903 1.7167037 -0.040259168
-0.15310508 1.698745 -0.00017477572
-0.16217887 1.6982837 0.03771767
-0.15687877 1.688127 0.075740635
-0.15219098 1.6782699 0.11312664
0.29874158 1.3765366 0.1028948
-0.1702708 1.7220917 -0.040018588
-0.15422213 1.7042296 0.00022357702
-0.15347165 1.6968825 0.038412064
-0.15478653 1.6912215 0.076313689
-0.14335364 1.6770771 0.11329347
0.27983913 1.3912553 0.10530867
-0.15673137 1.7171952 -0.03827478
-0.158804 1.7116995 0.00037102401
-0.14808178 1.6976932 0.039038211
-0.15609759 1.6964008 0.076936349
-0.14800537 1.6844351 0.11426735
0.31412321 1.37082 0.10204342
-0.14984995 1.716662 -0.037238792
-0.16160268 1.7182167 0.00064979494
-0.14280045 1.6983229 0.039629981
-0.14407384 1.6927192 0.077259466
-0.14920348 1.6897463 0.11505501
0.31515497 1.3723217 0.10232048
-0.15251589 1.723326 -0.037143797
-0.14639741 1.7121123 0.0019869506
-0.14880192 1.7072276 0.040083885
-0.13856679 1.6936527 0.077764884
-0.14707559 1.6928225 0.11562169
0.33270389 1.3626797 0.10079332
-0.15201217 1.7275418 -0.036745504
-0.14091569 1.712996 0.0027642399
-0.14830983 1.7114353 0.040620819
-0.13973939 1.698966 0.078409314
-0.13166332 1.6869986 0.11531465
0.31064546 1.3797935 0.10359666
-0.14987367 1.7305948 -0.036184818
-0.14052826 1.7170296 0.0031979531
-0.13310003 1.7052598 0.041380018
-0.13771558 1.7018505 0.078938842
-0.13293493 1.6921372 0.11606759
0.30513585 1.3858087 0.10460402
-0.13170332 1.7217736 -0.034035847
-0.14163882 1.7223847 0.0035663247
-0.13434196 1.7104344 0.041855916
-0.13884425 1.7071824 0.079584762
-0.13079798 1.6951587 0.11662121
0.32256138 1.3759583 0.10303716
-0.1328004 1.7271123 -0.033811346
-0.14121264 1.7264318 0.004000634
-0.12894958 1.7111149 0.042452142
-0.12374437 1.7008126 0.079741344
-0.12875831 1.6980224 0.11714497
0.33669567 1.3683419 0.10183157
-0.13215894 1.7314324 -0.033398002
-0.12591648 1.7203391 0.0053346157
-0.14129138 1.7247916 0.042830363
-0.12464553 1.7064178 0.080435127
-0.13290387 1.7059431 0.11821504
0.34103268 1.3675538 0.10173374
-0.13320661 1.7367953 -0.033171102
-0.1205495 1.720947 0.0060562938
-0.13424766 1.7242973 0.043445498
-0.12573314 1.7117398 0.081076175
-0.11771166 1.6996946 0.11782511
0.31601638 1.387327 0.1049742
-0.13263106 1.7409785 -0.032784879
-0.12482518 1.7286559 0.0062388182
-0.12399065 1.7213992 0.044091672
-0.12355685 1.7147295 0.081619978
-0.10916811 1.6978605 0.1178643
0.32684612 1.3819034 0.10412136
-0.1209932 1.7366261 -0.03132768
-0.12596315 1.733865 0.0065755844
-0.11870003 1.7218525 0.044642597
-0.12470949 1.7199202 0.082235143
-0.11682802 1.70767 0.11908834
0.31814706 1.3902406 0.10550357
-0.12051833 1.7406312 -0.03097567
-0.12707698 1.7390876 0.00691396
-0.11651802 1.7248099 0.045178682
-0.10972738 1.713284 0.082338482
-0.11463636 1.7106371 0.11962605
0.3192476 1.3917294 0.10577332
-0.11980665 1.7449353 -0.030570507
-0.11199933 1.7325795 0.0081669986
-0.11421555 1.7279073 0.045739055
-0.11064899 1.7187457 0.083000794
-0.11554313 1.7161062 0.1204312
0.32040864 1.3932885 0.10605526
-0.11749417 1.7480271 -0.030012026
-0.10651898 1.7332321 0.0088917017
-0.1152066 1.7332568 0.046238899
-0.1083374 1.7218306 0.08355777
-0.10047626 1.7095808 0.11998606
0.32151979 1.3947695 0.10632256
-0.11381453 1.7495975 -0.029355943
-0.11078089 1.7408561 0.0090539455
-0.10034811 1.726387 0.046862006
-0.10623586 1.7246152 0.084059551
-0.091980278 1.7075826 0.11999081
-0.10698593 1.7487015 -0.028399453
-0.10550827 1.7411923 0.0097195953
-0.10143805 1.7315657 0.047329143
-0.10731441 1.7298045 0.084669709
-0.096178889 1.7152522 0.12100694
0.33323911 1.3904588 0.10566707
-0.093782723 1.7429907 -0.026820034
-0.10960114 1.7489996 0.0099129379
-0.099221051 1.734465 0.04784973
-0.098712623 1.7278864 0.084970191
-0.10033387 1.7229586 0.12202868
0.33434024 1.3918962 0.10592504
-0.1041078 1.7557335 -0.027509555
-0.099482358 1.7457643 0.010841802
-0.10015613 1.7398061 0.048344076
-0.090133548 1.7259178 0.085260615
-0.098088026 1.7258701 0.12255025
0.34817088 1.3837568 0.10461938
-0.10342807 1.7598665 -0.027141422
-0.090964675 1.7437043 0.011678591
-0.10106456 1.7451608 0.048839852
-0.09739852 1.7361202 0.086122885
-0.089491725 1.7239223 0.1225601
0.33973071 1.392356 0.10604498
-0.10272956 1.7640028 -0.026773706
-0.099695802 1.7552512 0.011633843
-0.089362085 1.7406485 0.049417689
-0.091980219 1.736559 0.086521059
-0.087242067 1.7267976 0.12307316
0.32818198 1.4034319 0.10787556
-0.092694223 1.7606332 -0.025522113
-0.092740715 1.7543961 0.01238279
-0.080837369 1.7385449 0.049963385
-0.092863262 1.7419004 0.087153435
-0.084982574 1.7296648 0.12358375
-0.087337077 1.7609736 -0.024721667
-0.095145762 1.7610149 0.012659714
-0.087982237 1.7488499 0.050417498
-0.081163466 1.73735 0.087298855
-0.08271271 1.732525 0.12409206
0.35571179 1.3869128 0.10521781
-0.084962547 1.7639513 -0.024193197
-0.085088611 1.7575982 0.013551086
-0.094950438 1.7593551 0.050906092
-0.07878232 1.7403307 0.087827578
-0.080432951 1.7353771 0.12459791
0.34111044 1.4005136 0.10746092
-0.085771918 1.7693138 -0.023981541
-0.076499045 1.7555249 0.014380261
-0.092636347 1.7622328 0.051415622
-0.076503873 1.7431619 0.088328734
-0.071774006 1.7334034 0.12459789
0.35476458 1.3920901 0.10610165
-0.083481848 1.7721447 -0.023481205
-0.080520034 1.7632636 0.014553338
-0.07789886 1.7550077 0.051965311
-0.074330568 1.7458442 0.088802621
-0.063367844 1.731097 0.124538
0.343389 1.4033322 0.10795917
-0.07057184 1.7658842 -0.022008613
-0.076680183 1.7648115 0.01512447
-0.075714052 1.7576871 0.052437752
-0.075137556 1.7511793 0.089428753
-0.070422828 1.7413872 0.12583326
-0.072761238 1.772651 -0.021920472
-0.07898438 1.7714548 0.015400574
-0.077917695 1.7644577 0.052947015
-0.066514194 1.749079 0.08968626
-0.065010548 1.7416859 0.12605771
-0.073505223 1.7780142 -0.021712869
-0.067348599 1.7667086 0.016350329
-0.074045777 1.7660007 0.053444847
-0.061118305 1.7493281 0.090042531
-0.068766296 1.7496641 0.12711607
-0.071183801 1.7808038 -0.021223918
-0.06820786 1.771924 0.016670778
-0.070172429 1.7675254 0.053938404
-0.065080583 1.7570623 0.090774179
-0.054207921 1.742198 0.1264886
-0.064424157 1.7795522 -0.020344153
-0.059783518 1.7695284 0.017436892
-0.064885199 1.7676049 0.054404184
-0.062743187 1.7598476 0.091261104
-0.051893711 1.7449539 0.12697023
-0.056053519 1.7770982 -0.019309521
-0.060615718 1.77474 0.017754808
-0.054911911 1.7639158 0.054887861
-0.060513437 1.7624865 0.09172143
-0.055819213 1.7526711 0.12797989
-0.050720513 1.7772126 -0.018559098
-0.065731704 1.7841523 0.01791729
-0.055621862 1.7692552 0.0553675
-0.048883498 1.7576485 0.091805637
-0.053350151 1.7555709 0.12848453
-0.054291487 1.785315 -0.01861012
-0.049765348 1.7751405 0.019004628
-0.057703316 1.7760484 0.055874124
-0.049468994 1.7631078 0.092446044
-0.050988555 1.7583245 0.12896268
-0.050445199 1.7867212 -0.018002078
-0.047305286 1.7779936 0.019499213
-0.053816259 1.7774922 0.056348339
-0.047109842 1.7658404 0.092919528
-0.039499819 1.7533146 0.12859036
-0.055676877 1.7959149 -0.01823023
-0.048073232 1.7832068 0.019813374
-0.045523047 1.7748404 0.056783587
-0.044859707 1.768429 0.09336713
-0.034233093 1.7532911 0.12875053
-0.047455072 1.793195 -0.017246783
-0.04582119 1.7857832 0.020258039
-0.038759708 1.7734603 0.057214379
-0.048634231 1.7762557 0.094107911
-0.034901261 1.7585847 0.12950048
-0.036051691 1.7880312 -0.015959904
-0.049412966 1.7938049 0.020468399
-0.046767652 1.7855505 0.057738841
-0.037087858 1.7712212 0.09415254
-0.035541415 1.7638915 0.13025159
-0.04257375 1.7987251 -0.016295344
-0.037955523 1.7886492 0.021336034
-0.042865217 1.7869368 0.058198899
-0.028704107 1.7686245 0.094312042
-0.036033869 1.7693454 0.13102686
-0.040178001 1.8014109 -0.015834883
-0.029748917 1.7858357 0.022020638
-0.038961649 1.7883053 0.058654875
-0.02943331 1.7738075 0.094898477
-0.024761796 1.7639973 0.13059118
-0.039364755 1.805303 -0.015530229
-0.033285618 1.7938633 0.022228807
-0.030721307 1.7855053 0.059059694
-0.032996953 1.781799 0.095663473
-0.0223701 1.7666543 0.13104534
-0.029491425 1.8013437 -0.014402911
-0.036776066 1.8019235 0.022441521
-0.020786881 1.7815788 0.059491664
-0.030450404 1.7846099 0.096142948
-0.019969463 1.7693027 0.131497
-0.027085423 1.8039852 -0.013953149
-0.034217656 1.804731 0.022919416
-0.024296224 1.7896034 0.059978127
-0.025054455 1.7845938 0.096438676
-0.01743871 1.7720749 0.13196862
-0.024670362 1.8066185 -0.013505921
-0.023099065 1.7991068 0.023701698
-0.032175243 1.801722 0.060500845
-0.016836464 1.7817242 0.096546382
-0.021054566 1.7799294 0.13298982
-0.025274336 1.8118483 -0.013337612
-0.020671189 1.801735 0.024146959
-0.025431514 1.8001788 0.060895637
-0.01735431 1.7870507 0.097152129
-0.0097634196 1.7745132 0.13253734
-0.028504312 1.820099 -0.013376459
-0.02114749 1.8070931 0.024475649
-0.014072597 1.7947699 0.061290696
-0.01478827 1.7898057 0.097617567
-0.0073346496 1.7771194 0.13297755
-0.014481366 1.8117131 -0.011927933
-0.018569112 1.8098452 0.024939626
-0.0057989955 1.7918987 0.061677143
-0.015258908 1.7951455 0.098223388
-0.0077036023 1.7825544 0.13374066
-0.0091593862 1.8115385 -0.011242792
-0.016103745 1.812458 0.025379047
-0.0091789961 1.7999723 0.062166557
