# .PCD v0.7 - Point Cloud Data file format
VERSION 0.7
FIELDS x y z
SIZE 4 4 4
TYPE F F F
COUNT 1 1 1
WIDTH 1491
HEIGHT 1
VIEWPOINT 0 0 0 1 0 0 0
POINTS 1491
DATA ascii
0.37568554 1.0058887 -0.24789605
1.406646 3.7642493 0.21059991
0.38278437 1.0243486 -0.21256123
1.4080582 3.7660239 0.35176057
0.37512544 1.0027869 -0.16957499
1.411865 3.772191 0.49454582
0.37732264 1.0075871 -0.13210639
1.4125046 3.769886 0.63762695
0.38186011 1.018621 -0.095174067
1.635354 4.3623457 0.90557957
0.19990279 0.53296244 -0.029831499
1.6466875 4.3879118 1.0820146
0.23688483 0.63089085 -0.011762922
1.6448029 4.3782501 1.2532018
0.38323575 1.0158131 -0.29091263
0.36351892 0.96355122 0.01797598
0.38057116 1.0082175 -0.24879587
1.419778 3.7593157 0.21059991
0.38653603 1.0229388 -0.21256123
1.4246693 3.7682927 0.35245782
0.37879908 1.001405 -0.16957499
1.4215132 3.7579563 0.49332717
0.37802666 0.99883753 -0.13113143
1.42985 3.7760177 0.63950419
0.38682553 1.0210083 -0.095522694
1.6582896 4.374681 0.90939575
0.19335558 0.50981671 -0.028575433
1.659301 4.3727374 1.0797651
0.19368076 0.51040471 -0.0095290132
1.66282 4.3797059 1.2552725
0.387113 1.0164094 -0.29143026
0.37383264 0.98102683 0.018325027
0.38252422 1.0033079 -0.24789605
1.4357951 3.7639182 0.21112327
0.38764882 1.0162163 -0.21141638
1.4393435 3.7712433 0.35315505
0.38476175 1.0075916 -0.17082645
1.4389257 3.7662022 0.49503332
0.38133711 0.99757844 -0.13113143
1.4423649 3.771255 0.63950419
0.38931927 1.0179271 -0.095348388
1.6734295 4.3731165 0.91015899
0.1978129 0.5166676 -0.028994123
1.6751206 4.3729625 1.0811148
1.6801001 4.3813829 1.2573429
0.38718894 1.0060374 -0.28884208
0.38875231 1.0095738 0.018883504
0.39022791 1.0128773 -0.25059548
1.4510791 3.7644742 0.21143727
0.3897813 1.0111934 -0.21065316
1.4496304 3.7587609 0.35245782
0.39112136 1.0136141 -0.17207792
1.4556373 3.770416 0.496252
0.38624731 0.99994469 -0.1316189
1.4555212 3.7661967 0.63950419
0.39143392 1.0128448 -0.094999753
1.6929317 4.3782353 0.91244864
0.19961509 0.51597399 -0.028994123
1.6967071 4.3834443 1.085164
1.6946849 4.3736911 1.2568253
0.39069855 1.0046796 -0.28884208
0.37922215 0.97466576 0.018255217
0.39729556 1.020589 -0.25284499
1.4700106 3.7742743 0.21227466
0.39758396 1.0208027 -0.21294285
1.4656367 3.7611029 0.35315505
0.39322186 1.0085618 -0.17145219
1.4695123 3.7671614 0.49649575
0.39406607 1.0096858 -0.13308133
1.470095 3.7647734 0.64012986
0.3936933 1.007692 -0.09465114
1.7067766 4.3686419 0.91168547
0.20723216 0.5301556 -0.029831499
1.7141262 4.3829398 1.0865136
1.7120558 4.3731451 1.2583783
0.3950848 1.0050387 -0.28935969
0.38408554 0.97705817 0.018325027
0.39871567 1.0137554 -0.25149527
1.4839069 3.7709787 0.21237932
0.40419936 1.0266459 -0.21446933
1.4852529 3.7705364 0.35454956
0.39691553 1.0071139 -0.17145219
1.484836 3.7675495 0.49722698
0.39758793 1.0083041 -0.13308133
1.4875765 3.7706444 0.64200711
0.40086621 1.0155777 -0.095522694
1.7227759 4.3623571 0.91168547
0.20477009 0.51824743 -0.029203467
1.7330457 4.3838763 1.0883132
1.7329936 4.3815141 1.2625194
0.40215611 1.0126307 -0.2919479
0.39947835 1.0053779 0.018883504
0.39954922 1.0050436 -0.24969566
1.4992756 3.7713437 0.21269335
0.40778086 1.0252286 -0.21446933
1.4976678 3.7634776 0.35437521
0.40042886 1.0057222 -0.17145219
1.5008395 3.7676136 0.49795815
0.39981079 1.0031521 -0.13259386
1.5051167 3.7764392 0.64388436
0.40588447 1.0178735 -0.095871314
1.7452691 4.3745513 0.91550165
0.20657778 0.51752949 -0.029203467
1.7461687 4.3723717 1.0869635
1.7504289 4.3808188 1.2640723
0.40712687 1.0148067 -0.29298317
0.40429953 1.0077595 0.018953314
0.40360561 1.0055218 -0.25014558
1.5124301 3.7660873 0.21269335
0.409161 1.0183339 -0.21332446
1.5174851 3.7748644 0.35594404
0.40670875 1.0117202 -0.17270368
1.5192503 3.7773504 0.49990809
0.40165335 0.99813759 -0.13210639
1.5175531 3.7693298 0.6435715
0.41241255 1.0238431 -0.096568562
1.7641665 4.3796668 0.91779137
0.2097861 0.52054656 -0.029412812
1.7657586 4.3792086 1.0901128
1.7714938 4.3890142 1.2682134
0.40613812 1.0027078 -0.28987733
0.40781507 1.0063419 0.018953314
0.40857774 1.0077186 -0.25104538
1.5286639 3.7703056 0.21321672
0.40958351 1.0096945 -0.21179798
1.5269985 3.7624264 0.35524681
0.41172445 1.0139548 -0.17332941
1.5339202 3.775703 0.5003956
0.40812519 1.0040852 -0.13308133
1.5300454 3.7642763 0.6435715
0.41430467 1.0187784 -0.096219942
1.782402 4.3807559 0.91931778
0.21612018 0.53091013 -0.03004084
1.7839756 4.3802366 1.0919124
1.7853086 4.3813272 1.2676958
0.41036752 1.003072 -0.29039499
0.40812105 0.99758083 0.018813694
0.41782215 1.0207865 -0.2546446
1.5448421 3.7723401 0.2136354
0.41757184 1.0191587 -0.21408771
1.5446562 3.7681351 0.35629267
0.4135859 1.0089284 -0.17270368
1.5494462 3.7779412 0.50137055
0.41446674 1.0100725 -0.13405629
1.5484283 3.771704 0.64576155
0.41483018 1.0099543 -0.095522694
1.7969205 4.3748207 0.91931778
0.21787946 0.53019059 -0.03004084
1.8036797 4.3869128 1.0950617
0.35982695 0.87473887 -0.016509976
1.8013278 4.3768544 1.2682134
0.41737896 1.0106335 -0.29298317
0.41160056 0.9961502 0.018813694
0.41468266 1.0031134 -0.25059548
1.5625817 3.7779977 0.21426344
0.42470121 1.0268393 -0.2159958
1.5579042 3.764833 0.35646698
0.41710496 1.0074787 -0.17270368
1.561106 3.7688413 0.50088304
0.41798982 1.0086197 -0.13405629
1.5691477 3.784524 0.64889026
0.42446065 1.0232227 -0.09691719
1.8181998 4.3830285 0.92237073
0.21054171 0.50729048 -0.028784778
1.8219683 4.3877907 1.0968614
0.41197821 0.99166459 -0.018743884
1.821045 4.3812428 1.2713192
0.4240559 1.0162283 -0.29505375
0.4243165 1.0168529 0.019232551
0.42043421 1.0070546 -0.25194517
1.5749874 3.7706783 0.21415874
0.42921868 1.0270872 -0.21637741
1.577842 3.7738032 0.35786149
0.41926989 1.0022984 -0.17207792
1.5803782 3.7780211 0.50283301
0.41690999 0.99616718 -0.13259386
1.5869273 3.7899559 0.65076745
0.42956871 1.0254103 -0.09726581
1.8372868 4.3835783 0.92389715
0.21703368 0.51756668 -0.029412812
1.837283 4.3792863 1.0964113
0.40460584 0.964405 -0.018255217
1.8438032 4.3926725 1.2764956
0.42760092 1.0147418 -0.29505375
0.42337933 1.0042351 0.019023122
0.42790899 1.0144846 -0.25419468
1.588141 3.765157 0.21415874
0.42822167 1.01473 -0.21408771
1.5925545 3.7719433 0.35821009
0.42737827 1.0117468 -0.17395516
1.5957627 3.7758586 0.5033204
0.42210427 0.99828923 -0.13308133
1.5970691 3.7771165 0.64951599
0.43314573 1.0239044 -0.09726581
1.8525784 4.3771377 0.92389715
0.22039647 0.52048433 -0.029622154
1.8525596 4.3728461 1.0964113
0.40797004 0.96298671 -0.018255217
1.8621421 4.3933239 1.2785661
0.42811421 1.0061328 -0.29298317
0.426707 1.0028257 0.019023122
0.43127108 1.01306 -0.25419468
1.6091015 3.7779655 0.21520546
0.43253002 1.0150354 -0.21446933
1.6088377 3.7736919 0.35890734
0.43228066 1.0139581 -0.17458089
1.6145053 3.7851543 0.50527036
0.42852879 1.0041872 -0.13405629
1.6125718 3.7769678 0.65045458
0.43436953 1.0168895 -0.096742868
1.8740232 4.387219 0.92733175
0.22369091 0.52342385 -0.029831499
1.8754791 4.3863888 1.1013604
0.4018915 0.93949413 -0.01783636
1.8759431 4.3832469 1.2775309
0.43144855 1.0047076 -0.29298317
0.43494135 1.0123538 0.019232551
0.43942189 1.0222906 -0.25689411
1.6230677 3.7741611 0.21531016
0.43899637 1.0208095 -0.2159958
1.6229171 3.771997 0.35925597
0.43113151 1.0015565 -0.17270368
1.6308481 3.7867887 0.50624532
0.43360275 1.0063314 -0.13454378
1.6320029 3.7858276 0.65295756
0.43931699 1.0191026 -0.097091496
1.889325 4.3806515 0.92733175
0.23659478 0.54831326 -0.031296905
1.8946418 4.3887601 1.1036098
0.40358251 0.93441409 -0.017766548
1.8958311 4.3873115 1.2806368
0.44033253 1.0156021 -0.29660663
0.43210608 0.9961533 0.018953314
0.4375568 1.008237 -0.25374478
1.6449829 3.7886243 0.21646154
0.44568485 1.0264741 -0.21752228
1.6471868 3.7918932 0.3616963
0.4377737 1.0072924 -0.17395516
1.6456405 3.784713 0.50673276
0.44186383 1.0157336 -0.13600621
1.6538769 3.8000329 0.65639907
0.44366604 1.01939 -0.09726581
1.9069575 4.3794293 0.92847663
0.21617232 0.49621463 -0.028366093
1.9130634 4.389266 1.1054094
0.40844059 0.93666548 -0.01783636
1.9111352 4.3806663 1.2806368
0.44310012 1.0122894 -0.29608899
1.6564909 3.782558 0.072078437
0.44420195 1.0138432 -0.25554439
1.6557913 3.7773716 0.21614751
0.45162955 1.0303066 -0.21866712
1.6588136 3.7824709 0.36134771
0.44287476 1.0093758 -0.17458089
1.6620325 3.7862172 0.50770777
0.44061771 1.0032798 -0.13454378
1.6639539 3.7870018 0.65514761
0.44962642 1.0233073 -0.097788744
1.9277626 4.3853273 0.93114793
0.22433555 0.51008308 -0.029203467
1.9299421 4.3861294 1.1063093
0.38109127 0.86568642 -0.016509976
1.9326434 4.388113 1.2847778
0.44975403 1.0178046 -0.29815957
1.6753454 3.7895548 0.072322771
0.44852626 1.0140687 -0.25599429
1.6738153 3.7825274 0.21677555
0.44330618 1.0017939 -0.21294285
1.6800733 3.7948751 0.36309084
0.44639522 1.0078238 -0.17458089
1.6784568 3.7876515 0.50868267
0.44572648 1.0053649 -0.13503124
1.677963 3.7829769 0.65546048
0.45561892 1.0271953 -0.09831167
1.943856 4.3803654 0.93152958
0.23421931 0.52755117 -0.030250184
1.9499862 4.3900518 1.1090087
1.9495199 4.3848701 1.2858131
0.44858244 1.0056428 -0.29505375
1.695897 3.8001189 0.072636917
0.45444709 1.017835 -0.25734401
1.6935261 3.7912498 0.21761292
0.45000353 1.0074104 -0.21446933
1.6949346 3.7926257 0.36343944
0.45313591 1.0134728 -0.17583236
1.6949091 3.7890177 0.50965762
0.44923297 1.003803 -0.13503124
1.6968093 3.7897162 0.65765053
0.45757362 1.0219618 -0.097963057
1.963949 4.384304 0.93381923
0.23279203 0.51944011 -0.029831499
1.9700835 4.393887 1.1117082
1.9679769 4.3850884 1.2878836
0.45367613 1.0075939 -0.29608899
1.7107952 3.797822 0.072706729
0.46119979 1.0233493 -0.25914362
1.719884 3.8144474 0.21928766
0.45351708 1.0058335 -0.21446933
1.7163568 3.8048472 0.36518255
0.45342076 1.0046827 -0.17458089
1.7146595 3.7975528 0.51160759
0.4543688 1.0058467 -0.13551873
1.716537 3.7981708 0.66015351
0.46113846 1.0203582 -0.097963057
1.9792401 4.3774223 0.93381923
0.2411893 0.53318208 -0.030668873
1.988624 4.3940845 1.1135077
1.9832729 4.3781919 1.2878836
0.45958868 1.0112803 -0.29764193
1.7273498 3.7991099 0.072846346
0.4623487 1.0164114 -0.2577939
1.7325248 3.8087227 0.21928766
0.45865202 1.0078181 -0.21523255
1.7362299 3.8133407 0.36657706
0.45692477 1.0030938 -0.17458089
1.724613 3.784318 0.51063257
0.45952341 1.0078673 -0.13600621
1.7389541 3.8140278 0.663908
0.46635082 1.0223677 -0.09831167
1.9945093 4.3704863 0.93381923
0.24304888 0.53233695 -0.030668873
2.0104265 4.4012966 1.1171069
2.0050066 4.3874049 1.2925425
0.46553192 1.0149376 -0.29919481
1.7457753 3.8060832 0.07309068
0.46571651 1.0148727 -0.2577939
1.7491436 3.8099122 0.21970637
0.46872255 1.0204836 -0.2182855
1.7495314 3.8072565 0.36657706
0.46189809 1.0051631 -0.17520662
1.7404706 3.7857926 0.51160759
0.46120441 1.002731 -0.13551873
1.7547351 3.8133171 0.66484654
0.47158337 1.0243531 -0.098660305
2.0139186 4.374548 0.93610895
0.23144412 0.50250274 -0.028994123
2.0233788 4.3910666 1.1162071
2.0251627 4.3909049 1.2956481
0.47295097 1.0221548 -0.301783
1.7632518 3.8090396 0.07326521
0.47417021 1.0238507 -0.26049334
1.7617674 3.8040912 0.21970637
0.46715167 1.0082357 -0.2159958
1.7663376 3.8104708 0.3674486
0.47039071 1.0142969 -0.17708384
1.7662045 3.8067057 0.51526362
0.46303046 0.99751365 -0.13503124
1.7698669 3.8128519 0.66578513
0.47497746 1.0227838 -0.098660305
2.0341365 4.3781753 0.93839866
0.23824809 0.5125587 -0.029622154
2.0403388 4.3875103 1.1171069
2.0413415 4.3876691 1.2966834
0.47079492 1.0082446 -0.29815957
1.8088686 3.8738356 0.07462649
0.47673824 1.0205069 -0.26004341
1.8054781 3.8630564 0.22347455
0.46900535 1.0030419 -0.21523255
1.8125539 3.8746648 0.37424675
0.47542599 1.0163099 -0.17770956
2.0497653 4.3797617 0.5937475
0.4697026 1.0031638 -0.13600621
2.0538259 4.3844452 0.76684189
0.4751626 1.0139034 -0.097963057
2.0536442 4.3820715 0.94068843
0.24164213 0.51538259 -0.029831499
2.0606713 4.3930697 1.1202562
1.8613275 3.9663002 -0.076476447
2.055825 4.378768 1.2961658
0.47331294 1.00493 -0.29764193
1.8181174 3.858454 0.074451968
0.48445171 1.0276504 -0.26229292
1.8310527 3.8841474 0.22504464
0.47902897 1.0156864 -0.2182855
1.816888 3.850615 0.37250364
0.47391042 1.0039264 -0.17583236
2.0794535 4.4030938 0.59789103
0.4782899 1.0122871 -0.13746862
2.0793235 4.4008298 0.77090919
0.48107636 1.0177259 -0.098485984
2.0638931 4.3642268 0.93839866
0.25539827 0.53981131 -0.031296905
2.0809927 4.3964195 1.1229557
1.8368257 3.880579 -0.074940629
2.0769498 4.3858933 1.3003069
0.48262191 1.0154858 -0.30126539
1.8240346 3.837955 0.074172728
0.48450994 1.0189984 -0.26049334
1.8334473 3.854285 0.22368389
0.48510173 1.0193267 -0.21943036
1.8208978 3.8244615 0.37058622
0.47723722 1.0023491 -0.17583236
2.0855057 4.378253 0.59545368
0.479936 1.0071115 -0.13698116
2.0980723 4.4006777 0.77216065
0.485484 1.0178387 -0.098660305
2.0851147 4.3715353 0.94145161
0.241704 0.50651562 -0.029412812
2.0997596 4.3982873 1.1252052
1.8348483 3.8416631 -0.074312352
2.0972455 4.3890748 1.3034128
0.48616394 1.0137948 -0.30126539
1.8259822 3.8060014 0.073684059
0.48655477 1.013702 -0.25959352
1.8252833 3.8028471 0.22106709
0.49205652 1.0247061 -0.22095683
1.8238844 3.7965307 0.36849448
0.48347467 1.0059345 -0.17677096
2.105839 4.3795252 0.59667236
0.48018211 0.9981901 -0.13600621
2.1177032 4.4022264 0.77372491
0.48903373 1.016138 -0.098660305
2.1062326 4.3744779 0.94374132
0.2452925 0.50922501 -0.029622154
2.1141727 4.3870511 1.1243054
1.8360924 3.8100152 -0.073823676
2.1150672 4.3869491 1.3049657
0.49558991 1.0242645 -0.30488884
1.8237861 3.7693245 0.07309068
0.49500784 1.0226073 -0.26229292
1.8246193 3.7676914 0.21939236
0.49648669 1.024749 -0.22133845
1.8240895 3.7632484 0.36587983
0.48594651 1.0025481 -0.17645809
2.1255486 4.3832345 0.59813482
0.4878217 1.0055225 -0.1372249
2.1278808 4.3841453 0.77184772
0.49170771 1.0126323 -0.098485984
2.127589 4.381597 0.94679433
0.25221601 0.51918781 -0.030250184
2.1329699 4.3887792 1.126555
1.8546281 3.8143728 -0.074033104
2.1362841 4.3916993 1.3085891
0.49390054 1.0121982 -0.301783
1.8281593 3.7449658 0.072741628
0.49942991 1.0226243 -0.26274285
1.8263625 3.7379699 0.21803163
0.49902058 1.0213329 -0.22095683
1.8155588 3.7142193 0.3616963
0.49378192 1.0097185 -0.17802243
2.1460714 4.3864861 0.59959722
0.49307385 1.0073795 -0.13771236
2.1475141 4.3855624 0.77341211
0.4924342 1.0056282 -0.097963057
2.1489177 4.3864846 0.94946563
0.26105854 0.53265184 -0.031087562
2.152565 4.3900557 1.1288043
1.8362278 3.7432435 -0.072776534
2.1490467 4.3790131 1.3070362
0.49828431 1.0122012 -0.30230066
1.8262022 3.7080641 0.072148249
0.50471884 1.0243709 -0.26364264
1.8367494 3.7261982 0.2177176
0.50431848 1.0231067 -0.22172007
1.8197017 3.6899896 0.35995319
0.49293327 0.99913132 -0.17645809
2.1701553 4.3967695 0.60203457
0.49658751 1.0056521 -0.13771236
2.1689353 4.3904362 0.77560216
0.49770665 1.0074756 -0.09831167
2.1624756 4.3754373 0.94870234
0.25760496 0.52099508 -0.030459529
2.1721976 4.3912487 1.1310539
1.8492821 3.7368114 -0.072776534
2.1703205 4.3836031 1.3106596
0.50525129 1.0173767 -0.30437121
1.8222283 3.6676414 0.071485057
0.50482219 1.0156225 -0.26184303
1.8337368 3.6875737 0.2158335
0.50526398 1.0160663 -0.2205752
1.821921 3.6622095 0.35786149
0.49729833 0.99917281 -0.17677096
2.1828341 4.3838367 0.60130334
0.49832442 1.0003591 -0.1372249
2.1886523 4.3916788 0.77716655
0.50477493 1.0128651 -0.099008918
2.1803627 4.3731337 0.94984722
0.25763893 0.51651824 -0.030250184
2.1944728 4.3975892 1.1346531
1.8551686 3.7160208 -0.072497301
2.1907892 4.3863697 1.3137655
0.50966465 1.0173342 -0.30488884
1.8224766 3.6362298 0.070996389
0.50399715 1.0051439 -0.25959352
1.8286861 3.6454461 0.21374007
0.50704688 1.0107869 -0.21981198
1.8266513 3.6398008 0.35629267
0.50610143 1.008023 -0.17864819
2.2016866 4.383287 0.60227835
0.50092226 0.99683958 -0.13698116
2.2092934 4.3946009 0.77904367
0.50562292 1.0057564 -0.098485984
2.2061992 4.3865433 0.95442665
0.26662222 0.52988887 -0.031087562
2.2071822 4.3846793 1.1333034
1.8357481 3.645227 -0.071240723
2.2130401 4.392498 1.3179066
0.50972772 1.008652 -0.3028183
1.8360597 3.6316304 0.071031295
0.51190025 1.0120734 -0.26184303
1.8368922 3.6301301 0.21321672
0.50631487 1.0001637 -0.21790388
1.8366451 3.6280699 0.35576975
0.50961679 1.0062504 -0.17864819
2.2250495 4.391511 0.60447198
0.5070911 1.0003968 -0.13771236
2.2272992 4.3921485 0.77998233
0.51200992 1.009227 -0.099008918
2.227596 4.3889298 0.95671636
0.26856244 0.52890813 -0.031087562
2.2224731 4.3769488 1.1333034
1.8321601 3.606705 -0.070612431
2.237113 4.4019685 1.323083
0.50639975 0.99300921 -0.29867718
1.8520852 3.6302199 0.071136013
0.51117688 1.0015117 -0.25959352
1.8501842 3.6233735 0.21321672
0.50729805 0.993056 -0.21675903
1.8435864 3.6088929 0.35454956
0.51420069 1.0061346 -0.17896105
2.2474551 4.3956995 0.60617816
0.50804263 0.99322951 -0.13698116
2.2442834 4.3857131 0.78029525
0.50844175 0.99315572 -0.097614422
2.2490361 4.3912206 0.95900601
0.25957009 0.50659007 -0.029831499
2.2491655 4.389585 1.1387023
1.8535759 3.6159816 -0.070926577
2.2514679 4.3903017 1.3220477
0.51091969 0.99286437 -0.29919481
1.8644621 3.6216302 0.071101107
0.51484394 0.99963146 -0.25959352
1.8655653 3.6222196 0.21353073
0.51345843 0.99651515 -0.21790388
1.8622781 3.6127384 0.35559544
0.50883073 0.98668659 -0.17583236
2.2635543 4.3874307 0.60617816
0.51241696 0.99321407 -0.1372249
2.2650137 4.3883848 0.78217238
0.50824928 0.9842937 -0.09691719
2.2625499 4.3798547 0.95824283
0.2741743 0.53052139 -0.031296905
2.2707365 4.3938265 1.1418515
1.864351 3.6059365 -0.070856772
2.2721055 4.3927107 1.3251536
0.51331991 0.98944962 -0.29867718
1.8792245 3.6207526 0.071205825
0.50917614 0.9806236 -0.2550945
1.8803287 3.6213295 0.21384473
0.51223534 0.98609573 -0.2159958
1.8806785 3.6189184 0.35681561
0.50663292 0.97447777 -0.17395516
2.2817521 4.3869467 0.60715312
0.5083791 0.97742075 -0.13527498
2.2904944 4.4018784 0.78592682
0.51059079 0.98083538 -0.096742868
2.2843132 4.3862591 0.96129572
0.27593198 0.52960938 -0.031296905
2.2906961 4.3966422 1.1445509
1.8809209 3.6085999 -0.071031295
2.2893386 4.3902912 1.3267065
0.51301676 0.98089463 -0.29660663
1.8967843 3.6251309 0.071415246
0.50609875 0.96684426 -0.25194517
1.8938823 3.6165152 0.21394941
0.51368082 0.98091334 -0.21523255
1.9046897 3.6356044 0.35908166
0.50986141 0.97279245 -0.17395516
2.2972081 4.381114 0.60739684
0.50441104 0.96157694 -0.13332509
2.3095191 4.4008517 0.78717828
0.51384032 0.97913688 -0.096742868
2.3024952 4.385613 0.9628222
0.27768683 0.52869135 -0.031296905
2.3060305 4.3886189 1.1445509
1.9083908 3.6303341 -0.071589775
2.3145399 4.4010816 1.3324004
0.51463532 0.97568035 -0.29557136
1.9112943 3.6220248 0.071485057
0.51128995 0.96851861 -0.25284499
2.2544029 4.2686315 0.25299203
0.50885034 0.96348995 -0.21179798
2.2552364 4.2684007 0.42235672
0.51140755 0.9675141 -0.17332941
2.3226957 4.3923712 0.61007798
0.50219506 0.94928205 -0.13186264
2.3239419 4.3910184 0.78686547
0.51539087 0.97381544 -0.096394248
2.3278966 4.3966346 0.96702003
0.277661 0.52418888 -0.031087562
2.3249846 4.3874307 1.1463506
2.3335102 4.3998017 1.334471
0.5107798 0.96023363 -0.29143026
2.2771437 4.2790842 0.084609263
0.51100475 0.95984721 -0.25104538
2.2777407 4.2766018 0.25393409
0.50667328 0.95131093 -0.20950828
2.2776144 4.2745709 0.42375124
0.51106507 0.95875013 -0.17207792
2.3454878 4.3982491 0.61202788
0.50737381 0.9510265 -0.13235012
2.3466971 4.3968201 0.78936839
0.50863403 0.95258695 -0.094476826
2.3506284 4.4023356 0.97007298
0.28325287 0.5302633 -0.031506252
2.3476346 4.3930373 1.1499498
2.2862992 4.2764678 -0.084644176
2.3497646 4.3933339 1.3349887
0.50424761 0.93963039 -0.28573623
2.2911222 4.2693472 0.084574364
0.51066482 0.95118988 -0.24924576
2.2973795 4.2774229 0.25445744
0.50829792 0.94598883 -0.20874506
2.2951539 4.2697034 0.42409983
0.50521952 0.93947297 -0.16894925
2.3645861 4.3970289 0.61300284
0.50504756 0.93876046 -0.13088769
2.3695216 4.4025168 0.79187137
0.51195592 0.95080578 -0.094476826
2.3658159 4.391963 0.9696914
0.29087979 0.5397706 -0.03213428
2.3692675 4.3946958 1.1526492
2.3144972 4.2931037 -0.085132837
2.3650849 4.3851051 1.3349887
0.51028252 0.94296163 -0.28728914
2.3124659 4.2714725 0.084783792
0.51136369 0.94417101 -0.24789605
2.3227603 4.2886953 0.25560883
0.51066142 0.94248265 -0.20836343
2.3147902 4.2704244 0.4249714
0.50661278 0.93423063 -0.16832352
2.3806853 4.3883333 0.61300284
0.50659144 0.93341368 -0.13040021
2.3867586 4.3976917 0.79249716
0.5095678 0.93850702 -0.093430951
2.3773832 4.3767781 0.96816492
0.28704035 0.52822274 -0.031506252
2.3976252 4.410368 1.1589478
2.3409312 4.3060803 -0.085551701
2.3886852 4.392096 1.3396474
0.51079518 0.93608719 -0.28573623
2.3323665 4.2743125 0.084993221
0.50608802 0.92707604 -0.24384695
2.3319719 4.2700438 0.2549808
0.51206589 0.93724853 -0.20760021
2.3373287 4.2763042 0.42636588
0.50970781 0.9325456 -0.16832352
2.399035 4.3873806 0.61397779
0.50587302 0.92476249 -0.12942526
2.411577 4.4066629 0.79562581
0.51188374 0.93497515 -0.093256645
2.4013133 4.3860903 0.97198111
0.28303367 0.51675767 -0.030878218
2.4066179 4.392139 1.1562485
2.3655593 4.3154187 -0.085900746
2.4114323 4.3972826 1.3437886
0.51296538 0.93269551 -0.2852186
2.3549852 4.2801604 0.085272454
0.51307964 0.9321326 -0.24564654
2.354569 4.2758746 0.25581816
0.50475389 0.91662812 -0.20340241
2.3553431 4.2755094 0.42706311
0.50723892 0.92038059 -0.16644628
2.4191287 4.387671 0.61519653
0.50334573 0.91256166 -0.12796283
2.4250348 4.3947592 0.79500008
0.51129299 0.9262054 -0.092559397
2.4204054 4.3845558 0.97350752
0.28869811 0.52275991 -0.031296905
2.4275882 4.3939462 1.1589478
2.3806098 4.3071342 -0.085900746
2.4342465 4.4023623 1.3479296
0.50982052 0.91898394 -0.28159514
2.3786411 4.2876525 0.0855866
0.51160222 0.92181623 -0.24339703
2.3772378 4.2815986 0.25665554
0.50620371 0.91133922 -0.20263916
2.3738999 4.2720733 0.42758605
0.51156896 0.92024171 -0.16675916
2.4421449 4.3930802 0.61714637
0.5045982 0.90732938 -0.12747534
2.4451635 4.3948979 0.79656434
0.50677097 0.91048795 -0.091164902
2.4440989 4.3893771 0.97656047
0.29449981 0.52867752 -0.031715591
2.452215 4.4003386 1.1629969
2.3956289 4.2987986 -0.085900746
2.4467759 4.3887773 1.3463767
0.50453794 0.90202433 -0.27693638
2.3923862 4.2754154 0.085516788
0.51307344 0.91653425 -0.24249724
2.3999724 4.2872167 0.25749293
0.50458556 0.90100193 -0.20073107
2.39464 4.2741899 0.42863193
0.50608557 0.90294194 -0.16394335
2.4708524 4.4066086 0.62031502
0.50792056 0.90547371 -0.12747534
2.4662895 4.3966722 0.79844159
0.50507069 0.90002602 -0.090293348
2.4555628 4.373971 0.975034
0.30221179 0.5380947 -0.032343626
2.4732866 4.4019461 1.1656964
2.414537 4.2973838 -0.086040363
2.4649215 4.3852611 1.3479296
0.50388712 0.89352703 -0.27486584
2.4114616 4.2761683 0.085691318
0.50557733 0.89615762 -0.23754831
2.4217961 4.290988 0.25822562
0.5096575 0.90265459 -0.20149431
2.4164052 4.2779479 0.4298521
0.50324816 0.89093888 -0.16206612
2.4874039 4.4018478 0.62080252
0.50701225 0.89687252 -0.1265004
2.4864831 4.3966341 0.80000597
0.5111528 0.90345961 -0.090816282
2.4719865 4.3692217 0.9757973
0.29415616 0.51970828 -0.031296905
2.4917123 4.4005022 1.167496
2.4452941 4.3167677 -0.086598843
2.4897377 4.3934379 1.353106
0.51066571 0.89856941 -0.27693638
2.4323046 4.2781544 0.085900746
0.50484884 0.88761169 -0.23574872
2.4330511 4.2777247 0.25791162
0.51070637 0.89754671 -0.20073107
2.4374771 4.2820325 0.43107229
0.50733286 0.89089322 -0.162379
2.5066836 4.4000382 0.62177742
0.50227666 0.88129985 -0.12455048
2.5098512 4.403811 0.80282182
0.50921208 0.89310545 -0.089944728
2.5027854 4.3878527 0.9819032
0.29398891 0.51520878 -0.031087562
2.5109236 4.3985472 1.1692957
2.4635623 4.3155813 -0.08673846
2.5119567 4.3985786 1.3572472
0.50995791 0.89007622 -0.27486584
2.454432 4.2839446 0.086179987
0.50778937 0.88593274 -0.23574872
2.4509456 4.274405 0.25822562
0.50797534 0.88554066 -0.19844137
2.4633188 4.2925062 0.43298975
0.51028419 0.88920605 -0.162379
2.524225 4.3968668 0.62250865
0.50618529 0.8813507 -0.12479421
2.5261931 4.3967352 0.80313462
0.51034003 0.88786799 -0.0895961
2.5231917 4.3897419 0.98419291
0.28972226 0.50384247 -0.030459529
2.5274384 4.3935752 1.1701953
2.4786086 4.3069572 -0.08673846
2.531152 4.3964796 1.3593177
0.50421315 0.87332302 -0.27020708
2.4733682 4.282279 0.086319603
0.51087856 0.88415492 -0.23574872
2.4780979 4.2887344 0.25958636
0.50403124 0.87195331 -0.19577004
2.4755459 4.2808633 0.43264109
0.50843883 0.87887013 -0.16081464
2.5495021 4.4052091 0.62494606
0.50726962 0.87614238 -0.12430675
2.54373 4.3934617 0.80407327
0.5022971 0.86720592 -0.087678678
2.546375 4.3944964 0.9872458
0.30349913 0.52356315 -0.031715591
2.5515571 4.399899 1.1742445
2.5109353 4.3298507 -0.087366745
2.5457165 4.3880625 1.3593177
0.50337136 0.86487925 -0.26813653
2.4895685 4.2775097 0.086389415
0.51380748 0.88245606 -0.23574872
2.4980807 4.2886872 0.26010972
0.51003712 0.87527764 -0.1969149
2.4944847 4.2790828 0.43333834
0.50538123 0.8669399 -0.15893744
2.566098 4.4001594 0.62543356
0.5031693 0.86245346 -0.12260057
2.5670135 4.3982058 0.80657619
0.50833529 0.87060899 -0.088201612
2.5619242 4.3877225 0.98762739
0.30926305 0.52945232 -0.03213428
2.5700655 4.3981442 1.1760441
2.5240169 4.3176064 -0.08729694
2.5668705 4.3891544 1.3624235
0.50262666 0.85636401 -0.26606598
2.5110359 4.2765412 0.08656393
0.50830919 0.8653537 -0.2316996
2.515805 4.2829471 0.26031908
0.50727397 0.86324638 -0.1946252
2.5162108 4.2802162 0.4343842
0.50269818 0.8547765 -0.15706022
2.5869997 4.3971181 0.62640852
0.5084911 0.86393636 -0.12308804
2.5891292 4.3989816 0.80845338
0.50646806 0.8601557 -0.087330058
2.5837345 4.386312 0.98953551
0.29912576 0.50761235 -0.030878218
2.5928731 4.3983154 1.1787435
2.5377927 4.304882 -0.087227128
2.5986412 4.406342 1.3707057
0.51151484 0.86458039 -0.26917183
2.5313141 4.2785163 0.086773366
0.50621301 0.85527843 -0.22945009
2.5398993 4.2896056 0.26126111
0.50928342 0.85978132 -0.19424357
2.5443397 4.2936902 0.43665028
0.50552982 0.85310483 -0.15706022
2.6066294 4.3970523 0.62762713
0.50325251 0.8485862 -0.12113813
2.6135397 4.4052076 0.81126922
0.50540006 0.851529 -0.086632803
2.6062832 4.3912258 0.9925884
0.31304356 0.52722585 -0.03213428
2.6094337 4.3930445 1.1796434
2.5507622 4.2925582 -0.087157324
2.6209157 4.4088688 1.3743292
0.51141167 0.8579011 -0.26761889
2.5523801 4.2799587 0.086982794
0.5111925 0.85685313 -0.23034988
2.5528097 4.2772846 0.26105177
0.51011974 0.854716 -0.19348033
2.5616293 4.2903605 0.43717319
0.50647891 0.84794307 -0.15643448
2.6321435 4.4049673 0.63006455
0.50010055 0.83660102 -0.1196757
2.628902 4.3960571 0.81126922
0.51246077 0.85659885 -0.087330058
2.630666 4.3972645 0.996023
0.31693348 0.52955741 -0.032343626
2.63076 4.3939395 1.1823426
2.5780599 4.3042145 -0.087576173
2.6412551 4.4079776 1.3769174
0.50957614 0.84774226 -0.26503071
2.5734849 4.2813072 0.087192222
0.51217163 0.85172361 -0.22945009
2.5769894 4.2837505 0.26199383
0.50717479 0.84274787 -0.19119063
2.5773363 4.2809434 0.43717319
0.50754488 0.84269685 -0.15580875
2.6546717 4.4076567 0.63177073
0.50814039 0.8433516 -0.12089439
2.6523881 4.4003887 0.81377214
0.50515914 0.83774298 -0.085586935
2.6518366 4.3959975 0.99793106
0.32093608 0.53181231 -0.032552969
2.652889 4.3942785 1.1850421
2.591001 4.2917666 -0.087506369
2.6596234 4.4036918 1.3784703
0.50852823 0.83934915 -0.26296017
2.5891604 4.2718453 0.087192222
0.51225865 0.84484166 -0.22810037
2.5939972 4.2781458 0.26220316
0.50604087 0.83425784 -0.18966414
2.5994999 4.283843 0.43839338
0.50433278 0.83078855 -0.15393153
2.6749318 4.4046836 0.63274568
0.50916648 0.8380906 -0.12040692
2.6718359 4.3978553 0.8150236
0.51014972 0.83937985 -0.085935563
2.6712444 4.3934255 0.9994576
0.32279065 0.5306887 -0.032552969
2.6783426 4.401638 1.1895411
2.6205199 4.3066111 -0.087995037
2.6800005 4.4026327 1.3810586
0.51145482 0.83756906 -0.26296017
2.6095643 4.2734771 0.087401658
0.50489867 0.82650816 -0.22360134
2.6172478 4.2826977 0.26304054
0.50792575 0.83081144 -0.18928254
2.6227531 4.2883415 0.43978783
0.50296259 0.82237071 -0.15268005
2.6895227 4.3957896 0.63274568
0.50883371 0.83131826 -0.1196757
2.7016115 4.4120879 0.81940383
0.51099539 0.83419585 -0.085586935
2.6878486 4.3878913 1.0002208
0.32037458 0.52280349 -0.03213428
2.6969974 4.3993788 1.1913408
2.6438992 4.3110757 -0.08827427
2.7034354 4.4064236 1.3851995
0.51726657 0.84080458 -0.26451308
2.6359942 4.2830753 0.087785602
0.50982428 0.82805949 -0.22450115
2.6374197 4.2820382 0.2635639
0.50861907 0.82577914 -0.1885193
2.6421843 4.2881021 0.44065943
0.50583035 0.82060993 -0.15268005
2.7111034 4.396512 0.63420814
0.50131005 0.81264234 -0.11723832
2.7201097 4.4076734 0.82034248
0.51166642 0.82910562 -0.085238315
2.7144949 4.3968582 1.0044186
0.3221972 0.52168226 -0.03213428
2.7174604 4.3982258 1.1935903
2.6862686 4.3460455 -0.089181796
2.7228611 4.4035339 1.3872701
0.51612616 0.83242649 -0.26244253
2.6593618 4.2874413 0.088064842
0.51271141 0.82627493 -0.22450115
2.656563 4.2795935 0.26398259
0.50735658 0.81732672 -0.18699282
2.6644952 4.2907004 0.4418796
0.50452238 0.81212735 -0.15142858
2.7369108 4.4038825 0.63664556
0.49995139 0.80414402 -0.11626337
2.7375665 4.401505 0.82096815
0.51245308 0.82393062 -0.084889688
2.7308629 4.3890233 1.0048002
0.32401636 0.5205543 -0.03213428
2.7389781 4.3986378 1.1962898
2.7183387 4.3638 -0.089740276
2.7453692 4.4054785 1.3908936
0.51288664 0.82078981 -0.25933671
2.6774909 4.2832203 0.088169552
0.51352584 0.82117581 -0.22360134
2.6789017 4.2821465 0.26471528
0.5039593 0.80556434 -0.18470311
2.6836832 4.2881298 0.44257683
0.5073536 0.81036156 -0.15142858
2.7628045 4.4111247 0.63908291
0.50064754 0.79902947 -0.11577588
2.7613041 4.4053149 0.82347113
0.51109278 0.81538451 -0.084192447
2.7586834 4.3994226 1.0093796
0.33219966 0.52957153 -0.032762311
2.7657065 4.4072094 1.2012386
2.7165442 4.3271856 -0.089181796
2.7627864 4.3991399 1.3919289
0.50442415 0.80101287 -0.25364268
2.6988225 4.283999 0.088378988
0.51223338 0.81278354 -0.22180174
2.7055466 4.2913556 0.2658667
0.50467354 0.80047911 -0.18393987
2.700762 4.2821054 0.44292548
0.50280076 0.79689109 -0.1492385
2.7824206 4.4081707 0.64005786
0.50343347 0.79727709 -0.11577588
2.7829955 4.4056687 0.82534832
0.51180804 0.8102265 -0.083843827
2.7719228 4.3864489 1.0086164
0.32977712 0.52165598 -0.032343626
2.7904496 4.4123507 1.2052878
2.7487397 4.3447146 -0.089740276
2.7832904 4.3976316 1.3945172
0.51032281 0.80414045 -0.25519559
2.7159042 4.2779279 0.0884488
0.5087986 0.80112058 -0.21910232
2.7272589 4.2941608 0.26659939
0.50641203 0.79705536 -0.18355827
2.7274506 4.2911477 0.44484288
0.49921969 0.78512955 -0.14736128
2.8020539 4.4051299 0.64103281
0.51047647 0.80221385 -0.11675084
2.8039539 4.406414 0.82722551
0.51142317 0.80339283 -0.083320886
2.7977641 4.3933053 1.0124326
0.33374244 0.52387047 -0.032552969
2.8142121 4.4157305 1.208887
2.7631292 4.3355775 -0.089740276
2.8030498 4.396523 1.3971052
0.51208603 0.80072659 -0.25467795
2.7419257 4.2874298 0.088832751
0.5041008 0.78793824 -0.21595301
2.7433095 4.2862964 0.26670405
0.51130861 0.79858941 -0.18432149
2.7510066 4.2950249 0.44623742
0.49968949 0.78014302 -0.14673555
2.8230736 4.4058418 0.64249521
0.49813613 0.77711964 -0.1133385
2.8278458 4.409905 0.82972854
0.51422465 0.80160266 -0.083320886
2.8218594 4.3988752 1.0158671
0.33547768 0.52276093 -0.032552969
2.8277864 4.4047351 1.2084371
2.7782474 4.3259053 -0.089740276
2.823602 4.3948374 1.3996935
0.5136922 0.79740012 -0.25416031
2.7655404 4.2912803 0.089111991
0.50684839 0.7861737 -0.21595301
2.7647512 4.2867646 0.26733211
0.50118518 0.77709085 -0.17974208
2.7738767 4.2992711 0.44763187
0.50348115 0.78005362 -0.14704841
2.8470511 4.4093013 0.64444512
0.49869138 0.77204126 -0.11285102
2.8464396 4.4049835 0.83066714
0.51687986 0.79989308 -0.083320886
2.848922 4.4071336 1.0200649
0.34814599 0.53835809 -0.033599686
2.8494966 4.404654 1.2111365
2.7933319 4.3161802 -0.089740276
2.8515232 4.4044151 1.4059051
0.50700539 0.78101891 -0.24950157
2.7848604 4.2883081 0.089251608
0.50958943 0.78439981 -0.21595301
2.7818718 4.2804389 0.26754144
0.50175446 0.77204472 -0.17897885
2.7888684 4.2895613 0.44763187
0.50727779 0.77994746 -0.14736128
2.8754134 4.4193048 0.64736998
0.49921769 0.76696819 -0.11236355
2.8628774 4.3966751 0.83098
0.51423323 0.78973567 -0.082449332
2.8717887 4.4086781 1.0227362
0.34566155 0.53044611 -0.033180997
2.8712409 4.4044747 1.213836
2.8083804 4.3064041 -0.089740276
2.8647702 4.3911982 1.4048699
0.50549871 0.77277744 -0.24743101
2.8030965 4.2835817 0.089356326
0.51018989 0.77935517 -0.2150532
2.8099277 4.2907515 0.26879749
0.5065977 0.77357322 -0.17974208
2.8060079 4.2831345 0.44798052
0.5035007 0.76825881 -0.14548407
2.8951766 4.4158802 0.64834493
0.50080293 0.76356107 -0.1121198
2.8901262 4.4048228 0.83442152
0.51165766 0.77951759 -0.08157777
2.8893142 4.4019103 1.0234995
0.36066598 0.54927063 -0.034437064
2.8930163 4.4041991 1.2165353
2.8233943 4.2965751 -0.089740276
2.888572 4.3940845 1.4090109
0.50513715 0.76608121 -0.2458781
2.8202326 4.2771101 0.08942613
0.50646931 0.76780915 -0.2123538
2.8358877 4.2975879 0.2698442
0.50942945 0.77171141 -0.17974208
2.8381572 4.2977586 0.45059517
0.49977985 0.75651926 -0.14360686
2.9105725 4.4057479 0.64834493
0.50674891 0.7667765 -0.11285102
2.914201 4.4078898 0.83692449
0.51217723 0.77440327 -0.08122915
2.9097626 4.3978386 1.025026
0.36267689 0.5479449 -0.034437064
2.9177449 4.4065652 1.2201345
0.37204671 0.56188869 -0.011762922
2.9166934 4.4033027 1.4152226
0.516361 0.7771858 -0.25001919
2.8480668 4.2850633 0.089810088
0.50280601 0.75621116 -0.20965438
2.8541908 4.2926517 0.27015823
0.51212031 0.76992828 -0.17974208
2.8575561 4.2944613 0.45129246
0.50241774 0.75476992 -0.14360686
2.9333038 4.404964 0.64980739
0.49965075 0.75004542 -0.11065737
2.9405205 4.4141312 0.8400532
0.51377261 0.77095264 -0.081054844
2.9370744 4.4056244 1.0292237
0.36015454 0.54002917 -0.034018375
2.9331102 4.3963528 1.2201345
0.41395912 0.62047112 -0.013019496
2.9406245 4.4059496 1.4193637
0.50617439 0.75611472 -0.24380755
2.8711596 4.2888894 0.090089321
0.50531107 0.75453949 -0.20965438
2.8713818 4.2859802 0.27036759
0.5082466 0.75835091 -0.17745239
2.8802972 4.2960439 0.45251262
0.50161803 0.74817729 -0.14266825
2.9567423 4.4084005 0.6517573
0.49328688 0.73519707 -0.10870746
2.9570127 4.405479 0.84036607
0.51646078 0.76915443 -0.081054844
2.9604244 4.4088993 1.0322767
0.3508065 0.5222525 -0.032971658
2.9541955 4.396306 1.222834
0.41612265 0.61902225 -0.013019496
2.9667656 4.4116898 1.42454
0.50543916 0.74962658 -0.24225464
2.8939416 4.2904453 0.090333655
0.51012135 0.75600213 -0.21055418
2.8963811 4.2908301 0.27130961
0.50416833 0.74689782 -0.17516267
2.8945265 4.2864695 0.45251262
0.5064376 0.7496959 -0.14329399
2.9832263 4.4145007 0.65419465
0.50029749 0.74004877 -0.10968242
2.9801183 4.4065852 0.84255612
0.50449854 0.74598241 -0.078788787
2.9845965 4.4115477 1.0353296
0.36158317 0.53425705 -0.033809032
2.980448 4.4021044 1.2273329
0.37342486 0.55133903 -0.011623302
2.9821482 4.4013057 1.42454
0.50371063 0.74146563 -0.24018408
2.9066517 4.2770104 0.090263851
0.51056612 0.75099361 -0.20965438
2.919205 4.292254 0.27204233
0.50456446 0.7418865 -0.17439944
2.9173157 4.2878709 0.45373279
0.50349426 0.73975825 -0.14172964
3.0075567 4.4171867 0.65614462
0.50287753 0.738298 -0.10968242
3.0021551 4.4059515 0.84443337
0.50822115 0.74586338 -0.078963101
3.0010846 4.4027243 1.0357113
0.36569622 0.53629196 -0.034018375
3.0023844 4.4013338 1.2300324
0.39112765 0.5731566 -0.012111969
3.0072978 4.4052286 1.4291989
0.50193065 0.73332638 -0.23811352
2.9272134 4.2750869 0.090438366
0.50437462 0.73634481 -0.20605516
2.9401937 4.2924371 0.27267036
0.50937003 0.7433601 -0.17516267
2.9412785 4.2908072 0.45512727
0.50160497 0.73147964 -0.14047816
3.0229542 4.4066634 0.65614462
0.50083119 0.7300787 -0.10870746
3.0279276 4.4122581 0.84756202
0.51307708 0.74736983 -0.079311721
3.0208776 4.3986974 1.0372378
0.36304221 0.5284273 -0.033599686
3.0302062 4.4106269 1.2354312
0.38396496 0.55867255 -0.011832732
3.0339258 4.4127445 1.4348928
0.5043599 0.7316578 -0.23811352
0.50349408 0.72985578 -0.20470546
2.9521444 4.2793746 0.27246103
0.50737208 0.73520339 -0.1736362
2.9577541 4.2843099 0.4554759
0.50290561 0.72818667 -0.1401653
0.4976078 0.72024763 -0.10748877
3.0537729 4.4184437 0.85069072
0.5166859 0.74730301 -0.079486035
3.0432661 4.3999572 1.0399091
0.36706531 0.53050548 -0.033809032
3.0470326 4.40376 1.236331
0.41085377 0.59356928 -0.012600638
3.0540426 4.4106002 1.437481
0.51339346 0.73950291 -0.24121936
1.8547462 2.6706181 0.056755226
0.5081349 0.73138326 -0.20560527
0.51204813 0.73674119 -0.17439944
1.8493625 2.6598928 0.28343046
0.50644535 0.72813678 -0.14047816
1.8503156 2.6592853 0.39778158
0.49772581 0.71533471 -0.10700129
3.0729234 4.4147768 0.85194218
0.51574552 0.7406804 -0.078963101
3.0690603 4.405951 1.0437253
0.36653888 0.52600789 -0.033599686
3.0694189 4.4048219 1.2394803
0.36936501 0.5298664 -0.011274255
3.077491 4.4131255 1.4416221
0.50698745 0.72513014 -0.23707826
1.8612994 2.6611757 0.056685418
0.50608855 0.72330743 -0.20380566
1.8755243 2.6805203 0.17145261
0.50548226 0.72217184 -0.17134649
1.8581723 2.6537459 0.28343046
0.50205678 0.71674603 -0.13860095
1.8500113 2.6401286 0.39583167
0.49667794 0.70880306 -0.10627007
3.0943487 4.4142685 0.85381943
0.50675946 0.72265345 -0.077219985
3.091548 4.4069991 1.0463966
0.3705757 0.52805936 -0.033809032
3.0985608 4.4153571 1.245329
0.38720596 0.55155164 -0.011762922
3.0921099 4.402895 1.4416221
0.50519061 0.71695042 -0.2350077
1.8549103 2.6314542 0.056196753
0.51322889 0.72781777 -0.20560527
1.8742906 2.6569781 0.17040588
0.5092572 0.72191864 -0.1717281
1.8518033 2.6241279 0.28099012
0.4978455 0.70521808 -0.13672373
1.8608202 2.6349523 0.3960754
0.5039773 0.7133761 -0.10724504
3.1215374 4.4168725 0.85663521
0.51170474 0.72404528 -0.077568613
3.1133456 4.4036551 1.0483047
0.37481508 0.52995896 -0.034018375
3.1188693 4.4081984 1.2466787
0.37314695 0.52720988 -0.011274255
3.1156895 4.4004502 1.444728
0.50769031 0.71518248 -0.2350077
1.8490337 2.6037676 0.055742987
0.50222307 0.70695788 -0.20020644
1.8766128 2.640651 0.16977786
0.51632345 0.72653776 -0.17325458
1.8586437 2.6143997 0.2806415
0.50144887 0.70508593 -0.13703661
1.8504438 2.6009429 0.39193183
0.50416249 0.70837784 -0.10675755
3.1438093 4.4156051 0.85851246
0.51422882 0.72225481 -0.077568613
3.1343937 4.4007545 1.0502127
0.37666282 0.52864724 -0.034018375
3.14781 4.416328 1.2520776
0.37498513 0.52590406 -0.011274255
3.1422508 4.4052744 1.4499043
0.50568885 0.7071203 -0.23293714
1.852293 2.5891659 0.055568464
0.5001511 0.69886172 -0.19840683
1.8714103 2.6149237 0.16852181
0.51771367 0.72313452 -0.17287296
1.8596371 2.5965576 0.2794213
0.50275642 0.70172548 -0.13672373
1.8514174 2.5831728 0.39022568
0.49737841 0.69370753 -0.10480764
3.1710954 4.4228153 0.86195397
0.50629562 0.70588446 -0.075999804
3.1634722 4.4089279 1.0547922
0.36918864 0.5143488 -0.033180997
3.1654789 4.4084797 1.2529774
0.41404974 0.57663625 -0.012391209
3.1658592 4.4073815 1.4540454
0.51267093 0.71162069 -0.2350077
1.8585318 2.5797637 0.055498652
0.50246602 0.69719917 -0.19840683
1.8711818 2.5954149 0.16768442
0.51104724 0.70858449 -0.16982001
1.8616956 2.5803554 0.27837545
0.50508082 0.70005429 -0.13672373
1.8518405 2.5657523 0.3885195
0.49735218 0.68883538 -0.10432017
3.1876724 4.4133196 0.86226684
0.51342422 0.71057248 -0.076697052
3.1907222 4.4159184 1.05899
0.38727257 0.53578323 -0.034646407
3.186933 4.4074321 1.2556767
0.39262018 0.54278237 -0.011693113
3.1902838 4.4088249 1.4581866
0.50595236 0.69740725 -0.2308666
1.8616523 2.5651689 0.055324126
0.50489652 0.69544107 -0.19840683
1.875536 2.5824027 0.16726573
0.50762552 0.69894344 -0.16791193
1.8515041 2.548378 0.27558646
0.50519854 0.69509131 -0.136098
1.8514458 2.5464282 0.38656959
0.4997535 0.68709522 -0.10432017
3.2111928 4.4133472 0.86445701
0.51238382 0.70394349 -0.076174118
3.2142038 4.4158654 1.0616612
0.38443774 0.52796984 -0.034227718
3.213773 4.4120321 1.2601758
0.40393353 0.5543378 -0.011972351
3.2102072 4.4039059 1.4602571
0.49710345 0.67995304 -0.22569022
1.8576124 2.5408981 0.054940179
0.50847155 0.69524729 -0.19885674
1.8751051 2.5629442 0.16642836
0.50438625 0.68915701 -0.16600384
1.8537705 2.5319285 0.27454057
0.49840516 0.68048567 -0.13359505
1.8521134 2.528739 0.38486344
0.5044952 0.68854922 -0.10480764
3.2382576 4.4180431 0.86758566
0.51248187 0.698937 -0.075825498
3.2326882 4.4072218 1.0624245
0.38873351 0.52977771 -0.034437064
3.2391462 4.4127913 1.263775
0.39876652 0.54325217 -0.011762922
3.2347045 4.4051323 1.4643983
0.51207548 0.69532442 -0.23138423
1.8514943 2.5131426 0.054486416
0.50407934 0.6839667 -0.19615732
1.8804847 2.5515604 0.16611435
0.50678897 0.68739206 -0.16600384
1.8578664 2.5190291 0.27384335
0.5007773 0.67874187 -0.13359505
1.8472226 2.502768 0.38193855
0.50465745 0.68350148 -0.10432017
3.2665656 4.4241939 0.87102723
0.50781602 0.68752825 -0.074779622
3.2585545 4.410121 1.0658592
0.39295492 0.53162974 -0.034646407
3.2719085 4.4249625 1.2705235
0.39590463 0.53542542 -0.011623302
3.2638485 4.4124508 1.4706099
0.51449972 0.69353259 -0.23138423
1.8586272 2.5053823 0.054451507
0.50169921 0.67603183 -0.19435771
1.8703319 2.5193219 0.16443959
0.50918549 0.6856187 -0.16600384
1.8595185 2.502933 0.27279747
0.50538129 0.68024898 -0.13422079
1.8484081 2.4870689 0.38047612
0.4986307 0.67067277 -0.102614
3.2878826 4.4206905 0.8725915
0.51734883 0.69534218 -0.075825498
3.2837088 4.4134655 1.0692936
0.41141048 0.5527544 -0.036111813
3.2853997 4.4125257 1.2700737
0.40254939 0.54045504 -0.011762922
3.2884667 4.4134235 1.474751
0.51448399 0.68872756 -0.23034896
1.8613756 2.4908705 0.054276984
0.5040561 0.67427635 -0.19435771
1.8671516 2.4967844 0.16339287
0.50440127 0.67449325 -0.16371413
1.8582611 2.4839892 0.27140298
0.50301856 0.67215437 -0.1329693
1.8511305 2.4726555 0.37925744
0.50334841 0.67210591 -0.10310147
3.3104012 4.4186711 0.87446874
0.51606792 0.68883926 -0.075302556
3.3096929 4.4161153 1.0727283
0.40614885 0.54172689 -0.035483781
3.310137 4.4135017 1.2736728
0.39963323 0.53264827 -0.011623302
3.3177667 4.4204588 1.4809626
0.50643122 0.67303449 -0.22569022
1.8604388 2.4715762 0.053997744
0.51109546 0.67873985 -0.19615732
1.8674443 2.4790838 0.16266017
0.50557154 0.67116016 -0.16333251
1.8549306 2.4615753 0.26965985
0.49941626 0.66250753 -0.13140497
1.8501869 2.4535005 0.37730753
0.49732324 0.65925157 -0.1013953
3.3329437 4.4165502 0.87634599
0.50766766 0.67272055 -0.073733754
3.3369136 4.4202065 1.0765444
0.40081561 0.53074282 -0.034855749
3.3360965 4.4159136 1.277722
0.43283731 0.57272941 -0.012530828
3.3355081 4.411932 1.481998
0.50177616 0.66202486 -0.22258438
1.8581797 2.4507272 0.053683605
0.50639576 0.66763568 -0.1934579
1.8664292 2.4598212 0.1618228
0.50791138 0.66939116 -0.16333251
1.8562827 2.445565 0.26861399
0.50053138 0.65918684 -0.1310921
1.8563391 2.4438651 0.37682006
0.50202298 0.66067302 -0.10188278
3.3602948 4.4206142 0.87947464
0.50760162 0.667772 -0.073385134
3.352324 4.4085302 1.0765444
0.41717592 0.54841614 -0.036111813
3.3644705 4.4213004 1.2826709
0.38396201 0.5043875 -0.011064826
3.3567376 4.407949 1.484586
0.50525618 0.66180491 -0.22310203
1.8521588 2.4251549 0.053264745
0.50517416 0.66121823 -0.1921082
1.8725779 2.4501176 0.16161345
0.50547612 0.66137487 -0.16180603
1.8551276 2.4264073 0.26721951
0.50042939 0.65429741 -0.13046636
1.8491769 2.4168754 0.37365144
0.4982937 0.65103471 -0.10066409
3.3901174 4.4276781 0.88322914
0.51235205 0.66915977 -0.073733754
3.3772418 4.4092717 1.0795974
0.40451086 0.52793187 -0.034855749
3.3917394 4.4249949 1.2871699
0.42465732 0.55382472 -0.012181779
3.3838623 4.4115324 1.4897624
0.50403047 0.65544283 -0.22154912
1.8557365 2.4123344 0.053125124
0.50153637 0.65172929 -0.18985869
1.8604079 2.4166613 0.15983403
0.51257223 0.665829 -0.16333251
1.8611553 2.4167593 0.26687086
0.50753194 0.65880644 -0.13171785
1.8442734 2.3931096 0.37097031
0.49692729 0.64457488 -0.099932872
3.4176126 4.4314618 0.88635778
0.5171178 0.67052299 -0.074082382
3.4082036 4.4176626 1.0845585
0.40879193 0.52967882 -0.035065092
3.4119258 4.4193015 1.2889696
0.40458643 0.52385157 -0.011553493
3.4098721 4.4134512 1.4944212
0.50868112 0.65673411 -0.22258438
1.8567963 2.396358 0.052915696
0.50142074 0.64689404 -0.18895888
1.8627126 2.402261 0.15931067
0.50647205 0.65317547 -0.16066119
1.8622526 2.4008026 0.265825
0.50498468 0.65078807 -0.13046636
1.8526163 2.3866565 0.37097031
0.49673915 0.63970065 -0.099445395
3.4354851 4.4226241 0.88698351
0.51212192 0.65927303 -0.073036514
3.4356508 4.4212399 1.0883746
0.42044452 0.54086363 -0.03590247
3.43451 4.4165936 1.2916689
0.43096927 0.55400306 -0.012251589
3.4371207 4.4167686 1.4995975
0.50384051 0.64581573 -0.21947856
1.8565383 2.3788266 0.052671362
0.50727326 0.64974803 -0.19030859
1.8682098 2.3929226 0.15910132
0.50391513 0.6452145 -0.15913472
1.8534492 2.3723066 0.26338464
0.50725311 0.64902145 -0.13046636
1.8511529 2.3676658 0.3690204
0.50019222 0.63952625 -0.099689126
3.4610863 4.42521 0.88979936
0.50705355 0.64806646 -0.071990639
3.4667926 4.4293194 1.0933356
0.41740495 0.53310233 -0.035483781
3.4619234 4.4199185 1.296168
0.42293951 0.53997678 -0.011972351
3.4577072 4.4129491 1.5021858
0.50489831 0.6425339 -0.21896091
1.8545319 2.3600786 0.052392125
0.50701672 0.64499807 -0.18940879
1.8691446 2.3769665 0.15847328
0.50859207 0.6465376 -0.15989795
1.8518615 2.353297 0.26199016
0.50207323 0.63802147 -0.12858914
1.856539 2.3583939 0.36853293
0.50108194 0.63630462 -0.099445395
3.4887352 4.4286199 0.892928
0.50561321 0.64159781 -0.071467713
3.4802456 4.4162574 1.0929539
0.42164335 0.53485227 -0.035693128
3.4886277 4.4237165 1.3006669
0.41739041 0.52907747 -0.011762922
3.4766796 4.4054027 1.5037388
0.50702643 0.64085597 -0.21896091
1.8503482 2.3379109 0.052043077
0.50563592 0.63864082 -0.18805908
1.8699905 2.3610327 0.15784526
0.50585771 0.63869131 -0.15837148
1.8571802 2.3440204 0.26164153
0.49816245 0.62852442 -0.1270248
1.8487278 2.3316772 0.36536431
0.50329989 0.63455176 -0.099445395
3.5176802 4.4334359 0.89636964
0.51156586 0.64451057 -0.071990639
3.5078466 4.4194584 1.0967702
0.42350766 0.53337723 -0.035693128
3.5161695 4.4267707 1.305166
0.43789512 0.55110157 -0.012286494
3.5052581 4.4098759 1.5094327
0.50816751 0.63748276 -0.21844329
1.8535125 2.3251827 0.05190346
0.50543231 0.63382459 -0.18715927
1.8632741 2.3357553 0.1565892
0.51309335 0.64297116 -0.15989795
1.8583016 2.3278546 0.26059568
0.50416064 0.63132519 -0.12796341
1.8432291 2.3081472 0.36268318
0.49931702 0.62503612 -0.098226704
3.5429988 4.433476 0.89887255
0.51132417 0.63960856 -0.071642019
3.5362816 4.421905 1.1005863
0.42296451 0.52870214 -0.035483781
3.5335879 4.4153762 1.3056159
0.40857911 0.51053786 -0.011413874
3.5302899 4.409677 1.5135738
0.51159894 0.63721156 -0.21896091
1.8595172 2.3152559 0.051833645
0.50531107 0.62892944 -0.18625948
1.8626602 2.3183379 0.15585649
0.50672507 0.63046455 -0.15722662
1.8626703 2.3166957 0.26007274
0.50512344 0.62802213 -0.12765054
1.8516771 2.3013754 0.36268318
0.49662566 0.61701632 -0.097251743
3.567122 4.4318542 0.90106261
0.51730245 0.64247531 -0.072164953
3.5652437 4.4263525 1.1047841
0.43232605 0.53655398 -0.036111813
3.5563176 4.412117 1.3083154
0.44047689 0.54647416 -0.012251589
3.559001 4.4138689 1.5192679
0.50653207 0.6264087 -0.21585509
1.8596413 2.2997468 0.05162422
0.50861937 0.62876546 -0.18670937
1.8657143 2.3056128 0.1554378
0.50521713 0.62411392 -0.15608177
1.8494308 2.2838569 0.25710943
0.50471681 0.62327337 -0.1270248
1.8505503 2.2844265 0.36097702
0.49616957 0.61228132 -0.096764266
1.857215 2.2910161 0.46711335
0.50950205 0.62828594 -0.070770465
3.5910285 4.4282308 1.1082187
0.43661961 0.53821939 -0.036321156
3.585664 4.418458 1.3137141
0.41969541 0.51698804 -0.011623302
3.5829105 4.4119172 1.5228913
0.50738674 0.62322754 -0.21533746
1.8537675 2.276185 0.051240265
0.50711834 0.62245393 -0.18535967
1.8649189 2.2882481 0.15470509
0.50976443 0.62547892 -0.156845
1.8544767 2.2746224 0.25676081
